1525,1525,1529,1529,1529,1532,1532,1532,1536,1536,1536,1539,1539,1539,1539,1539,1543,1539,1539,1539,1539,1539,1539,1539,1539,1539,1539,1539,1539,1539,1539,1539,1539,1539,1539,1539,1539,1539,1539,1536,1536,1536,1536,1536,1536,1536,1536,1536,1536,1539,1539,1539,1543,1543,1543,1550,1550,1550,1550,1550,1546,1546,1546,1546,1546,1546,1546,1546,1546,1550,1550,1550,1550,1550,1550,1554,1554,1554,1554,1554,1550,1546,1546,1543,1539,1539,1539,1536,1536,1536,1532,1532,1532,1532,1532,1532,1536,1539,1543,1543,1543,1543,1543,1546,1546,1546,1546,1550,1546,1546,1546,1546,1550,0,0,0,0,0,0,0,8515,8515,8515,8625,0,0,0,0,0,0,0,0,0,0,0,0,0,0,0,0,0,0,0,0,0,0,0,1529,1529,1529,1529,1529,1532,1532,1532,1536,1536,1546,1554,1554,1557,1561,1561,1561,1561,1561,1561,1554,1554,1546,1536,1536,1529,1525,1525,1522,1519,1519,1519,1515,1515,1515,1515,1515,1515,1512,1512,1512,1512,1512,1512,1512,1512,1512,1512,1512,1512,1512,1512,1512,1512,1512,1512,1512,1512,1515,1519,1519,1519,1525,1525,1529,1532,1536,1536,1536,1539,1539,1543,1543,1543,1546,1546,1546,1546,1546,1550,1550,1546,1546,1546,1550,1550,1546,1546,1546,1546,1546,1546,1546,1543,1543,1543,1543,1543,1543,1543,1546,1550,1550,1554,1554,1554,1554,1557,1557,1557,1561,1561,1561,1561,1561,1561,1561,1561,1561,1561,1561,1557,1554,1554,1550,1550,1550,1543,1539,1539,1529,1529,1529,1522,1519,1515,1515,1515,1515,1519,1515,1515,1519,1519,1522,1525,1525,1529,1532,1532,1532,1536,1536,1536,1539,1539,1539,1539,1539,1536,1536,1536,1536,1536,1536,1539,1539,1539,1539,1539,1543,1546,1546,1550,1550,1550,1554,1554,1554,1554,1554,1554,1554,1554,1557,1557,1557,1557,1557,1561,1568,1568,1568,1572,1575,1575,1579,1587,1587,1587,1587,1583,1583,1583,1579,1575,1575,1572,1568,1568,1564,1557,1557,1557,1554,1554,1554,1554,1550,1550,1550,1550,1550,1550,1550,1550,1546,1546,1546,1543,1543,1543,1539,1539,1539,1539,1539,1539,1539,1539,1539,1546,1546,1546,1550,1550,1557,1561,1564,1564,1564,1568,1568,1568,1572,1572,1572,1572,1572,1575,1575,1575,1575,1575,1575,1575,1575,1575,1575,1575,1575,1575,1572,1572,1572,1572,1572,1568,1568,1568,1564,1561,1557,1557,1554,1550,1550,1546,1543,1543,1543,1539,1539,1536,1532,1532,1532,1529,1529,1529,1525,1525,1525,1525,1525,1525,1525,1525,1525,1525,1525,1525,1525,1525,1529,1529,1529,1532,1532,1536,1536,1543,1543,1543,1546,1546,1546,1550,1550,1550,1550,1550,1550,1550,1550,1550,1550,1554,1554,1554,1557,1557,1557,1557,1557,1561,1561,1561,1564,1568,1568,1572,1575,1579,1579,1579,1579,1579,1579,1579,1579,1579,1579,1575,1575,1575,1572,1568,1568,1564,1564,1561,1561,1557,1554,1554,1554,1554,1554,1554,1550,1550,1550,1550,1550,1550,1554,1554,1554,1554,1554,1561,1561,1561,1561,1561,1561,1561,1561,1557,1557,1557,1557,1557,1554,1554,1557,1557,1557,1557,1557,1557,1557,1561,1561,1561,1561,1561,1564,1564,1564,1568,1572,1572,1572,1568,1568,1568,1568,1572,1572,1568,1568,1568,1568,2411,2411,2411,2420,2420,2429,2420,2420,2429,2429,2429,2429,2429,2429,2429,2420,2420,2420,2420,2420,2420,2420,2420,2429,2429,2429,2437
1525,1525,1525,1525,1529,1529,1529,1532,1532,1532,1536,1536,1536,1536,1536,1536,1539,1536,1536,1536,1536,1536,1536,1536,1539,1539,1539,1539,1539,1539,1539,1539,1539,1539,1539,1539,1539,1539,1539,1536,1536,1536,1536,1536,1536,1536,1536,1536,1536,1539,1539,1539,1543,1543,1543,1546,1546,1546,1546,1546,1546,1543,1543,1543,1543,1543,1543,1543,1543,1543,1543,1543,1543,1543,1543,1543,1543,1543,1543,1543,1539,1536,1536,1536,1532,1532,1532,1529,1529,1529,1529,1529,1529,1529,1529,1529,1536,1536,1539,1539,1539,1543,1543,1543,1543,1543,1543,1543,1543,1543,1543,1546,0,0,0,0,0,0,0,0,8515,8515,8515,8625,0,0,0,0,0,0,0,0,0,0,0,0,0,0,0,0,0,0,0,0,0,0,0,1529,1529,1529,1529,1529,1532,1532,1532,1536,1536,1546,1554,1554,1557,1561,1561,1557,1557,1561,1557,1550,1550,1546,1536,1536,1529,1525,1525,1522,1519,1519,1519,1515,1515,1519,1515,1515,1515,1515,1515,1515,1512,1512,1512,1512,1512,1512,1512,1512,1512,1512,1512,1512,1512,1508,1508,1512,1512,1512,1512,1512,1515,1519,1519,1522,1525,1529,1529,1532,1536,1536,1543,1543,1543,1546,1546,1546,1546,1546,1550,1550,1546,1546,1546,1550,1550,1546,1546,1546,1546,1546,1546,1546,1543,1543,1543,1543,1543,1543,1543,1546,1546,1546,1550,1554,1554,1554,1554,1554,1557,1557,1561,1561,1561,1561,1557,1557,1557,1557,1557,1557,1554,1554,1554,1550,1546,1546,1539,1532,1532,1529,1525,1525,1519,1519,1512,1512,1512,1512,1515,1515,1515,1519,1519,1522,1525,1525,1532,1536,1536,1536,1539,1539,1539,1536,1536,1536,1536,1536,1536,1532,1532,1532,1532,1536,1536,1536,1539,1539,1539,1543,1546,1546,1550,1550,1550,1554,1554,1554,1554,1554,1554,1554,1554,1557,1557,1557,1557,1557,1561,1568,1568,1568,1572,1575,1575,1579,1579,1579,1579,1579,1579,1575,1575,1572,1568,1568,1564,1564,1564,1557,1557,1557,1554,1550,1550,1550,1550,1550,1550,1550,1550,1550,1550,1550,1550,1546,1546,1546,1543,1539,1539,1539,1536,1536,1536,1536,1536,1536,1536,1536,1539,1539,1543,1543,1543,1550,1557,1561,1561,1564,1564,1564,1568,1568,1568,1568,1572,1572,1572,1572,1572,1575,1575,1575,1575,1575,1575,1575,1575,1575,1575,1575,1575,1572,1572,1572,1568,1568,1568,1564,1561,1557,1557,1554,1550,1550,1546,1543,1543,1543,1539,1539,1536,1529,1529,1529,1529,1529,1525,1525,1525,1525,1525,1525,1525,1525,1525,1525,1525,1525,1525,1525,1525,1525,1525,1529,1529,1529,1532,1536,1539,1539,1543,1543,1543,1546,1550,1546,1546,1546,1546,1546,1546,1546,1550,1550,1550,1550,1550,1554,1554,1554,1554,1554,1557,1561,1561,1564,1564,1564,1568,1572,1579,1579,1579,1579,1579,1579,1579,1579,1579,1579,1575,1575,1575,1572,1568,1568,1568,1564,1561,1561,1557,1554,1554,1554,1554,1554,1554,1550,1550,1550,1550,1550,1550,1554,1554,1554,1554,1554,1557,1557,1557,1557,1557,1557,1557,1557,1554,1554,1554,1554,1554,1554,1554,1554,1554,1554,1554,1554,1554,1557,1557,1557,1557,1561,1561,1561,1564,1564,1564,1568,1568,1568,1568,1568,1568,1568,1568,1568,1568,1568,1568,1568,1568,1568,2411,2420,2420,2429,2429,2429,2437,2429,2429,2437,2437,2429,2429,2429,2429,2429,2420,2420,2429,2420,2420,2429,2429,2429,2437
1525,1525,1525,1525,1529,1529,1529,1532,1532,1532,1536,1536,1536,1536,1536,1536,1539,1536,1536,1536,1536,1536,1536,1536,1536,1536,1536,1536,1536,1536,1536,1536,1536,1536,1536,1536,1532,1532,1532,1532,1532,1532,1532,1532,1532,1532,1532,1532,1532,1536,1536,1536,1536,1539,1539,1539,1543,1543,1543,1543,1539,1536,1536,1536,1536,1536,1536,1532,1532,1536,1532,1532,1536,1536,1536,1536,1536,1536,1536,1536,1536,1532,1532,1529,1529,1529,1529,1525,1525,1525,1529,1529,1529,1529,1529,1529,1536,1536,1539,1539,1539,1543,1543,1543,1543,1543,1543,1543,1543,1543,1543,0,0,0,0,0,0,0,0,0,8515,8515,8515,8625,0,0,0,0,0,0,0,0,0,0,0,0,0,0,0,0,0,0,0,0,0,0,0,1529,1529,1536,1536,1536,1536,1536,1539,1543,1543,1546,1554,1557,1557,1557,1557,1554,1554,1557,1554,1550,1550,1543,1536,1536,1529,1525,1525,1522,1519,1519,1519,1519,1519,1519,1519,1519,1519,1519,1519,1519,1515,1515,1515,1515,1515,1515,1515,1512,1512,1512,1512,1512,1512,1508,1508,1512,1512,1512,1512,1512,1515,1519,1519,1522,1525,1529,1529,1532,1536,1536,1539,1543,1543,1543,1543,1543,1543,1546,1546,1546,1546,1546,1546,1546,1546,1543,1543,1543,1543,1543,1543,1543,1543,1543,1543,1543,1543,1543,1543,1546,1546,1546,1550,1554,1554,1554,1554,1554,1557,1557,1557,1557,1557,1557,1554,1554,1554,1554,1554,1554,1550,1550,1550,1546,1539,1539,1536,1532,1532,1529,1522,1519,1519,1515,1512,1512,1512,1512,1515,1515,1519,1519,1519,1522,1525,1525,1532,1536,1536,1536,1539,1539,1539,1536,1536,1536,1536,1536,1536,1532,1532,1532,1532,1536,1536,1536,1536,1539,1539,1543,1543,1543,1546,1550,1550,1550,1550,1550,1550,1546,1546,1546,1546,1546,1546,1550,1554,1554,1554,1561,1561,1564,1564,1564,1564,1572,1572,1572,1572,1572,1572,1568,1568,1564,1564,1564,1561,1561,1561,1557,1554,1554,1554,1550,1550,1550,1550,1550,1550,1550,1550,1550,1550,1550,1550,1546,1546,1546,1543,1539,1539,1536,1536,1536,1536,1536,1536,1536,1536,1536,1539,1539,1543,1543,1543,1550,1557,1561,1561,1564,1564,1564,1568,1568,1568,1568,1572,1572,1572,1572,1572,1575,1575,1575,1575,1575,1575,1575,1575,1575,1575,1572,1572,1572,1572,1572,1568,1564,1564,1561,1557,1554,1554,1550,1546,1546,1546,1543,1543,1539,1536,1536,1532,1529,1529,1529,1525,1525,1525,1525,1525,1525,1525,1525,1525,1525,1525,1525,1525,1525,1525,1525,1525,1525,1525,1525,1529,1529,1532,1536,1536,1536,1539,1539,1539,1543,1546,1546,1546,1546,1546,1546,1546,1546,1550,1550,1550,1550,1550,1554,1554,1554,1554,1554,1557,1561,1561,1564,1564,1564,1568,1572,1579,1579,1579,1579,1579,1579,1579,1579,1579,1579,1575,1572,1572,1572,1568,1568,1564,1561,1557,1557,1554,1550,1550,1546,1546,1546,1546,1546,1546,1546,1546,1546,1546,1550,1550,1550,1550,1550,1554,1554,1550,1550,1550,1550,1550,1550,1550,1550,1550,1550,1550,1550,1550,1550,1550,1550,1550,1554,1554,1554,1554,1554,1554,1557,1557,1561,1561,1561,1564,1564,1564,1564,1564,1564,1564,1568,1568,1568,1568,1568,1568,1568,1568,1568,2420,2420,2420,2429,2429,2429,2437,2437,2437,2437,2437,2437,2437,2437,2437,2437,2429,2429,2429,2420,2420,2429,2429,2429,2437
1519,1522,1522,1522,1525,1525,1525,1529,1532,1532,1532,1532,1532,1532,1532,1532,1536,1532,1532,1532,1532,1532,1529,1529,1529,1529,1529,1529,1529,1529,1529,1529,1529,1529,1529,1529,1529,1529,1529,1529,1529,1525,1525,1525,1525,1525,1525,1525,1529,1529,1532,1532,1532,1532,1532,1536,1536,1536,1532,1532,1532,1536,1536,1536,1536,1536,1536,1532,1532,1536,1532,1532,1536,1536,1536,1536,1536,1536,1536,1536,1536,1532,1532,1529,1529,1529,1529,1525,1525,1525,1525,1525,1525,1525,1525,1525,1529,1532,1532,1532,1536,1536,1536,1539,1539,1539,1539,1539,1539,1539,1539,0,0,0,0,0,0,8105,8105,8105,8204,8409,8409,8515,8737,8737,0,0,0,0,0,0,0,0,0,0,0,0,0,0,0,0,0,0,0,0,0,0,0,0,1543,1543,1543,1543,1543,1543,1543,1550,1554,1557,1557,1557,1557,1554,1554,1557,1554,1550,1550,1543,1536,1536,1529,1525,1525,1522,1519,1519,1519,1519,1519,1519,1519,1519,1519,1519,1519,1519,1515,1515,1515,1515,1515,1515,1515,1512,1512,1508,1508,1508,1508,1508,1508,1508,1508,1508,1512,1512,1512,1515,1515,1522,1525,1525,1525,1529,1532,1532,1536,1536,1536,1539,1539,1539,1539,1543,1543,1543,1543,1543,1543,1543,1543,1543,1543,1543,1543,1543,1543,1543,1543,1543,1543,1543,1543,1543,1543,1546,1546,1546,1550,1554,1554,1554,1557,1557,1557,1557,1557,1557,1557,1557,1554,1554,1554,1554,1554,1554,1550,1550,1550,1546,1539,1539,1536,1532,1532,1529,1522,1519,1519,1515,1512,1512,1512,1512,1515,1515,1519,1519,1519,1522,1525,1525,1532,1536,1536,1536,1539,1539,1539,1536,1536,1536,1536,1536,1536,1532,1532,1532,1532,1536,1536,1536,1536,1539,1539,1539,1543,1543,1543,1546,1546,1546,1546,1543,1543,1543,1543,1539,1539,1539,1539,1543,1543,1543,1546,1550,1550,1554,1557,1557,1557,1564,1564,1564,1564,1564,1564,1564,1568,1564,1564,1564,1561,1561,1561,1557,1554,1554,1554,1550,1550,1550,1550,1550,1554,1550,1550,1550,1550,1550,1550,1546,1546,1546,1543,1543,1543,1536,1536,1532,1532,1532,1532,1532,1532,1536,1536,1536,1539,1539,1539,1546,1554,1554,1554,1557,1561,1561,1564,1568,1568,1568,1572,1572,1572,1572,1572,1575,1575,1575,1575,1575,1575,1575,1572,1572,1572,1572,1572,1568,1568,1568,1564,1564,1564,1561,1557,1554,1554,1550,1546,1546,1543,1539,1539,1539,1536,1536,1532,1529,1529,1529,1525,1525,1525,1525,1525,1525,1525,1525,1525,1525,1525,1525,1525,1525,1525,1525,1525,1525,1525,1525,1529,1529,1532,1536,1536,1536,1539,1539,1539,1543,1546,1546,1546,1546,1546,1546,1546,1546,1546,1546,1550,1550,1550,1554,1554,1554,1554,1554,1557,1557,1557,1561,1564,1564,1568,1572,1575,1575,1575,1575,1575,1579,1579,1579,1575,1575,1575,1572,1572,1568,1564,1561,1561,1557,1554,1554,1546,1546,1546,1543,1543,1543,1543,1543,1543,1543,1543,1543,1543,1543,1546,1546,1546,1546,1546,1546,1546,1546,1546,1546,1550,1550,1550,1550,1550,1550,1550,1550,1550,1550,1550,1550,1550,1554,1554,1554,1554,1554,1554,1557,1557,1561,1561,1561,1564,1564,1564,1564,1564,1564,1564,1568,1568,1568,1568,1568,1568,1568,1568,1568,2420,2420,2420,2429,2429,2429,2437,2437,2437,2437,2437,2437,2437,2437,2437,2437,2429,2429,2429,2429,2429,2429,2429,2429,2437
1519,1519,1522,1522,1522,1525,1525,1529,1529,1529,1529,1529,1529,1529,1529,1529,1529,1529,1529,1525,1525,1525,1522,1522,1522,1522,1522,1522,1522,1522,1529,1529,1529,1529,1529,1529,1529,1529,1529,1529,1529,1525,1525,1525,1525,1525,1525,1525,1529,1529,1532,1532,1532,1532,1532,1536,1536,1536,1532,1532,1532,1529,1529,1529,1529,1525,1525,1525,1525,1525,1525,1525,1525,1525,1529,1529,1529,1532,1532,1529,1529,1525,1525,1525,1522,1522,1522,1522,1522,1519,1519,1522,1522,1522,1522,1522,1525,1529,1529,1529,1529,1532,1532,1532,1536,1536,1536,1536,1536,1536,1536,0,0,0,7645,7645,7645,7822,8009,8009,8105,8305,8305,8515,8737,8737,0,0,0,0,0,0,0,0,0,0,0,0,0,0,0,0,0,0,0,0,0,0,0,0,0,0,0,0,1543,1543,1543,1550,1554,1557,1557,1554,1554,1554,1554,1554,1550,1546,1546,1543,1532,1532,1529,1522,1522,1519,1519,1519,1519,1519,1519,1519,1519,1519,1519,1519,1519,1519,1519,1515,1515,1515,1515,1515,1515,1512,1508,1508,1508,1508,1508,1508,1508,1508,1505,1505,1505,1505,1508,1512,1512,1515,1522,1522,1522,1525,1529,1529,1529,1532,1532,1536,1536,1536,1539,1543,1543,1543,1543,1543,1543,1543,1543,1543,1543,1543,1543,1543,1543,1543,1543,1543,1543,1543,1543,1543,1543,1546,1546,1546,1550,1554,1554,1554,1557,1557,1557,1557,1557,1557,1554,1554,1554,1546,1546,1546,1546,1546,1543,1543,1543,1539,1536,1536,1532,1532,1532,1525,1522,1519,1519,1515,1512,1512,1512,1515,1515,1515,1519,1522,1522,1525,1529,1529,1536,1539,1539,1539,1539,1539,1539,1536,1536,1536,1536,1536,1532,1532,1532,1532,1532,1532,1532,1532,1532,1536,1536,1536,1539,1539,1543,1546,1546,1546,1546,1543,1543,1543,1543,1539,1539,1539,1539,1543,1543,1543,1546,1550,1550,1554,1557,1557,1557,1564,1564,1564,1564,1564,1564,1564,1564,1561,1557,1557,1557,1557,1557,1557,1554,1554,1554,1550,1550,1550,1550,1550,1554,1550,1550,1550,1550,1550,1550,1546,1546,1546,1543,1543,1539,1536,1536,1532,1532,1532,1532,1532,1532,1532,1532,1532,1536,1539,1539,1543,1550,1554,1554,1554,1561,1561,1564,1564,1564,1568,1572,1572,1572,1575,1575,1575,1575,1575,1575,1575,1575,1572,1572,1572,1572,1572,1572,1568,1568,1568,1564,1564,1564,1561,1557,1554,1554,1550,1546,1546,1543,1539,1539,1539,1536,1536,1532,1529,1529,1529,1525,1525,1525,1525,1525,1525,1525,1525,1525,1525,1525,1525,1525,1525,1525,1525,1525,1525,1525,1525,1529,1529,1532,1536,1536,1536,1539,1539,1539,1543,1546,1543,1543,1543,1543,1543,1546,1546,1546,1546,1546,1546,1550,1550,1550,1550,1554,1554,1554,1557,1557,1557,1561,1564,1564,1568,1572,1572,1575,1575,1575,1575,1575,1575,1575,1575,1572,1568,1568,1568,1564,1561,1561,1557,1554,1554,1546,1546,1546,1543,1543,1543,1543,1543,1543,1543,1543,1543,1543,1543,1546,1546,1546,1546,1546,1546,1546,1546,1546,1546,1546,1546,1546,1546,1546,1546,1546,1546,1546,1546,1546,1546,1550,1550,1550,1550,1550,1550,1554,1554,1554,1557,1557,1557,1561,1561,1561,1561,1564,1564,1564,1564,1564,1564,1564,1564,1564,1564,1568,1568,2420,2420,2429,2437,2437,2437,2446,2446,2455,2455,2446,2446,2446,2446,2437,2437,2437,2437,2429,2429,2429,2429,2437,2437,2437
1519,1519,1522,1522,1522,1525,1525,1529,1529,1529,1529,1529,1529,1529,1529,1529,1529,1529,1529,1525,1525,1525,1522,1522,1522,1522,1522,1522,1522,1522,1522,1522,1522,1522,1525,1525,1525,1525,1522,1522,1522,1522,1522,1522,1522,1522,1522,1522,1522,1522,1525,1525,1525,1529,1529,1529,1529,1529,1525,1525,1525,1522,1522,1522,1522,1522,1522,1519,1519,1519,1519,1519,1522,1522,1522,1522,1522,1525,1525,1525,1525,1522,1522,1522,1522,1522,1522,1522,1522,1519,1519,1519,1519,1522,1522,1522,1525,1529,1529,1529,1529,1532,1532,1532,1536,1536,1536,1536,1536,1536,1536,0,0,0,7645,7645,7645,7822,8009,8009,8105,8305,8305,8515,8737,8737,0,0,0,0,0,0,0,0,0,0,0,0,0,0,0,0,0,0,0,0,0,0,0,0,1568,1564,1564,1561,1554,1554,1550,1550,1554,1554,1554,1550,1550,1546,1546,1546,1543,1543,1543,1539,1532,1532,1525,1522,1522,1519,1519,1519,1519,1519,1519,1519,1519,1519,1522,1519,1519,1519,1519,1515,1515,1515,1515,1515,1515,1512,1508,1508,1508,1508,1508,1508,1508,1508,1505,1505,1505,1505,1508,1512,1512,1515,1522,1522,1522,1525,1529,1529,1529,1532,1532,1536,1536,1536,1536,1536,1539,1539,1539,1539,1539,1539,1539,1539,1539,1539,1539,1539,1539,1539,1539,1539,1539,1539,1543,1543,1543,1546,1546,1546,1550,1554,1554,1554,1554,1554,1554,1554,1554,1550,1550,1550,1546,1546,1546,1543,1543,1543,1539,1536,1536,1536,1532,1532,1529,1529,1529,1525,1522,1515,1515,1515,1512,1512,1512,1512,1515,1515,1519,1525,1525,1529,1532,1536,1536,1539,1539,1539,1539,1539,1539,1536,1536,1536,1536,1536,1532,1532,1532,1532,1532,1532,1532,1532,1532,1536,1536,1536,1539,1539,1539,1539,1539,1543,1543,1543,1539,1539,1539,1536,1536,1536,1536,1536,1536,1536,1536,1543,1543,1543,1546,1546,1550,1554,1557,1557,1557,1557,1557,1561,1561,1561,1557,1557,1557,1557,1557,1557,1554,1554,1554,1550,1550,1554,1554,1554,1554,1554,1550,1550,1550,1550,1550,1550,1546,1546,1546,1543,1539,1539,1536,1532,1532,1532,1532,1532,1532,1532,1532,1532,1536,1539,1539,1543,1550,1554,1554,1554,1561,1561,1564,1564,1564,1568,1572,1572,1572,1575,1575,1575,1575,1575,1575,1575,1575,1572,1572,1572,1572,1568,1568,1568,1564,1564,1564,1561,1561,1557,1554,1550,1550,1546,1543,1543,1539,1539,1539,1536,1532,1532,1529,1529,1529,1529,1529,1529,1525,1525,1525,1529,1525,1525,1525,1525,1529,1529,1529,1529,1529,1529,1529,1529,1529,1532,1532,1532,1532,1536,1536,1536,1539,1539,1539,1543,1543,1543,1543,1543,1543,1543,1543,1543,1543,1546,1546,1546,1550,1550,1550,1550,1554,1554,1554,1557,1557,1557,1561,1564,1564,1568,1572,1572,1575,1575,1575,1575,1575,1575,1575,1575,1572,1568,1568,1564,1561,1557,1557,1554,1550,1550,1543,1543,1543,1539,1539,1539,1539,1539,1539,1539,1539,1539,1539,1539,1543,1543,1543,1543,1543,1543,1543,1543,1543,1543,1543,1543,1543,1543,1543,1543,1543,1543,1543,1546,1546,1546,1546,1546,1546,1546,1546,1546,1550,1554,1554,1554,1557,1557,1557,1557,1561,1561,1561,1561,1561,1561,1564,1564,1564,1564,1564,1564,1568,1568,2437,2437,2446,2446,2446,2455,2455,2455,2464,2464,2455,2455,2455,2455,2446,2446,2446,2446,2437,2437,2437,2437,2437,2437,2437
1515,1519,1519,1519,1519,1522,1522,1525,1525,1525,1525,1529,1529,1529,1529,1525,1525,1525,1525,1525,1522,1522,1522,1519,1519,1519,1519,1519,1519,1519,1522,1522,1522,1522,1522,1522,1519,1519,1519,1519,1519,1515,1515,1515,1515,1515,1515,1515,1515,1519,1519,1519,1522,1522,1522,1522,1522,1522,1519,1519,1519,1515,1515,1515,1515,1515,1522,1519,1519,1519,1519,1519,1522,1522,1522,1522,1522,1525,1525,1525,1525,1522,1522,1522,1522,1522,1522,1522,1522,1519,1519,1519,1519,1522,1522,1522,1525,1525,1525,1525,1525,1525,1525,1529,1532,1532,1532,1532,1532,1532,1532,0,0,0,7559,7559,7559,7732,7914,7914,8009,8204,8204,8409,0,0,0,0,0,0,0,0,0,0,0,0,0,0,0,0,0,0,0,0,0,0,0,0,0,0,1568,1564,1564,1561,1554,1554,1554,1554,1554,1554,1554,1550,1550,1546,1546,1546,1543,1543,1543,1539,1532,1532,1525,1522,1522,1519,1519,1519,1519,1519,1522,1522,1519,1519,1522,1522,1522,1522,1519,1519,1519,1515,1515,1515,1515,1512,1508,1508,1508,1505,1505,1505,1505,1505,1502,1502,1502,1502,1505,1508,1508,1515,1519,1519,1519,1522,1522,1522,1525,1529,1529,1529,1532,1532,1532,1532,1536,1532,1532,1532,1532,1536,1536,1532,1532,1532,1532,1532,1532,1532,1536,1536,1536,1536,1536,1536,1536,1539,1546,1546,1546,1550,1550,1546,1546,1546,1550,1550,1554,1550,1550,1550,1546,1546,1546,1543,1543,1543,1539,1536,1536,1536,1532,1532,1529,1529,1529,1525,1522,1515,1515,1515,1515,1515,1512,1512,1515,1515,1519,1522,1522,1525,1529,1532,1532,1532,1536,1536,1536,1536,1532,1532,1532,1532,1532,1532,1529,1525,1525,1525,1525,1525,1529,1529,1529,1529,1529,1532,1532,1532,1536,1536,1536,1539,1539,1539,1536,1536,1536,1532,1532,1532,1532,1532,1532,1532,1536,1536,1536,1539,1543,1543,1546,1546,1550,1550,1550,1554,1554,1557,1557,1557,1554,1554,1554,1554,1557,1557,1554,1554,1557,1554,1554,1557,1557,1557,1557,1557,1554,1554,1554,1554,1554,1554,1554,1550,1550,1550,1543,1543,1539,1539,1539,1536,1532,1532,1532,1532,1532,1532,1536,1539,1539,1543,1550,1550,1550,1554,1561,1561,1564,1564,1564,1568,1572,1572,1572,1575,1575,1575,1575,1575,1575,1575,1575,1572,1572,1572,1568,1568,1568,1564,1564,1564,1561,1561,1557,1557,1550,1550,1550,1546,1543,1543,1539,1536,1536,1536,1529,1529,1529,1529,1529,1525,1525,1529,1529,1529,1529,1529,1529,1529,1529,1529,1532,1532,1532,1532,1532,1529,1529,1532,1532,1532,1532,1532,1532,1536,1536,1536,1539,1539,1539,1543,1543,1543,1543,1543,1543,1543,1543,1543,1543,1546,1546,1546,1546,1546,1546,1550,1550,1550,1554,1554,1554,1557,1557,1561,1561,1564,1564,1564,1568,1572,1572,1572,1572,1572,1572,1572,1568,1564,1564,1561,1557,1554,1554,1550,1546,1546,1543,1539,1539,1536,1536,1536,1536,1539,1539,1539,1536,1536,1536,1536,1539,1539,1539,1539,1539,1539,1539,1543,1543,1543,1543,1543,1539,1539,1539,1539,1543,1543,1543,1546,1546,1546,1546,1546,1546,1546,1546,1546,1550,1554,1554,1554,1557,1557,1557,1557,1561,1561,1561,1561,1561,1561,1564,1564,1564,1564,1564,1564,1564,1564,2437,2437,2446,2446,2446,2455,2455,2455,2464,2464,2455,2455,2455,2455,2446,2446,2446,2446,2437,2437,2437,2437,2437,2437,2446
1515,1515,1515,1515,1515,1519,1519,1522,1522,1522,1522,1525,1525,1525,1525,1522,1522,1522,1522,1522,1522,1522,1519,1519,1519,1519,1519,1519,1519,1519,1519,1519,1519,1519,1519,1519,1519,1519,1519,1519,1519,1515,1515,1515,1515,1515,1515,1515,1515,1519,1519,1519,1522,1522,1522,1522,1522,1522,1519,1519,1519,1515,1515,1515,1515,1515,1515,1512,1512,1515,1515,1515,1515,1515,1515,1519,1519,1519,1519,1519,1519,1519,1519,1519,1522,1522,1522,1522,1522,1519,1519,1519,1519,1522,1522,1522,1522,1522,1522,1522,1522,1525,1525,1525,1529,1529,1529,1529,1529,1529,1529,0,0,0,7559,7559,7559,7645,7822,7822,7914,8105,8105,8305,0,0,0,0,0,0,0,0,0,0,0,0,0,0,0,0,0,0,0,0,0,0,0,0,0,0,0,1572,1572,1561,1561,1561,1557,1557,1554,1554,1554,1550,1550,1546,1546,1546,1543,1539,1539,1536,1532,1532,1525,1522,1522,1519,1519,1519,1519,1519,1522,1522,1519,1519,1522,1522,1522,1522,1519,1519,1519,1515,1515,1515,1515,1512,1508,1508,1508,1505,1505,1505,1505,1505,1502,1502,1502,1502,1505,1505,1505,1512,1515,1519,1519,1519,1522,1522,1522,1525,1525,1525,1529,1529,1529,1529,1532,1532,1532,1532,1532,1536,1536,1532,1532,1532,1532,1532,1532,1532,1536,1536,1536,1536,1536,1536,1536,1539,1546,1546,1546,1550,1550,1546,1546,1546,1550,1546,1546,1546,1543,1543,1539,1536,1536,1536,1536,1536,1536,1532,1532,1532,1529,1529,1525,1525,1522,1522,1522,1515,1515,1515,1512,1512,1512,1512,1515,1515,1515,1519,1519,1522,1525,1529,1529,1532,1532,1532,1532,1532,1532,1529,1529,1529,1525,1525,1522,1522,1522,1522,1522,1522,1522,1522,1522,1525,1525,1525,1529,1529,1529,1532,1532,1532,1532,1539,1536,1536,1536,1532,1532,1532,1532,1532,1532,1532,1536,1536,1536,1539,1543,1543,1546,1546,1550,1550,1550,1554,1554,1557,1557,1557,1554,1554,1554,1554,1554,1557,1554,1554,1557,1554,1554,1557,1557,1557,1557,1557,1554,1554,1554,1554,1554,1554,1554,1550,1550,1550,1543,1543,1539,1539,1539,1536,1536,1536,1536,1536,1539,1536,1536,1539,1539,1543,1546,1550,1550,1550,1561,1561,1564,1564,1564,1568,1572,1572,1575,1575,1575,1575,1575,1575,1575,1575,1575,1572,1572,1572,1568,1568,1568,1564,1564,1564,1561,1561,1557,1557,1550,1550,1550,1546,1543,1543,1539,1536,1536,1536,1529,1529,1529,1529,1529,1525,1525,1529,1529,1529,1529,1532,1529,1529,1529,1529,1532,1532,1532,1532,1532,1529,1529,1532,1532,1532,1532,1532,1532,1536,1536,1536,1539,1539,1539,1539,1539,1539,1539,1543,1543,1543,1543,1543,1543,1546,1546,1546,1546,1546,1546,1550,1550,1550,1554,1554,1554,1554,1554,1557,1557,1561,1561,1561,1564,1564,1564,1564,1564,1564,1564,1564,1564,1561,1561,1557,1557,1550,1550,1550,1546,1546,1543,1539,1539,1536,1536,1536,1536,1539,1539,1539,1536,1536,1536,1536,1539,1539,1539,1539,1539,1539,1539,1543,1543,1543,1543,1543,1539,1539,1539,1539,1539,1539,1539,1543,1543,1543,1543,1543,1543,1543,1546,1546,1546,1550,1550,1550,1554,1554,1554,1554,1557,1557,1557,1557,1557,1561,1561,1561,1561,1561,1561,1564,1564,1564,0,2473,2473,2473,2464,2464,2464,2464,2464,2473,2473,2464,2464,2464,2455,2455,2455,2455,2446,2446,2446,2446,2446,2446,2446
1512,1515,1515,1515,1515,1519,1519,1522,1522,1522,1522,1525,1525,1525,1525,1522,1522,1522,1522,1522,1522,1522,1519,1519,1519,1519,1519,1519,1519,1519,1519,1519,1519,1519,1519,1515,1515,1515,1515,1512,1512,1512,1512,1512,1512,1512,1512,1512,1512,1512,1515,1515,1515,1515,1515,1515,1515,1515,1515,1515,1512,1512,1512,1508,1508,1508,1508,1508,1508,1512,1508,1508,1512,1512,1512,1515,1515,1519,1519,1519,1519,1519,1519,1519,1522,1522,1522,1522,1522,1522,1522,1522,1522,1522,1522,1522,1522,1522,1522,1522,1522,1525,1525,1525,1529,1529,1529,1529,1529,1529,1529,0,0,0,7559,7559,7559,7645,7822,7822,7914,8105,8105,8305,0,0,0,0,0,0,0,0,0,0,0,0,0,0,0,0,0,0,0,0,0,0,0,1594,1587,1587,1583,1572,1572,1561,1557,1557,1557,1554,1554,1554,1550,1546,1546,1546,1543,1543,1539,1536,1536,1532,1532,1532,1525,1522,1522,1519,1519,1522,1522,1522,1522,1522,1522,1522,1522,1522,1522,1522,1522,1519,1519,1519,1515,1515,1515,1512,1512,1512,1508,1508,1508,1505,1505,1505,1502,1502,1502,1502,1505,1505,1505,1512,1515,1519,1519,1519,1522,1522,1522,1525,1525,1525,1529,1529,1529,1529,1532,1532,1532,1532,1532,1532,1532,1532,1532,1532,1529,1529,1529,1529,1529,1529,1532,1532,1532,1532,1532,1536,1539,1539,1543,1543,1543,1543,1543,1543,1543,1539,1539,1539,1536,1536,1532,1532,1532,1532,1532,1532,1532,1529,1529,1529,1525,1525,1525,1525,1522,1522,1522,1515,1515,1515,1512,1512,1512,1515,1515,1515,1515,1519,1519,1522,1522,1525,1525,1532,1532,1532,1532,1532,1532,1529,1529,1529,1525,1525,1522,1522,1522,1522,1522,1522,1522,1522,1522,1525,1525,1525,1529,1529,1529,1532,1532,1532,1532,1532,1532,1532,1532,1529,1529,1529,1529,1529,1529,1529,1529,1532,1532,1536,1539,1543,1543,1546,1546,1546,1550,1550,1550,1554,1557,1557,1554,1554,1554,1554,1554,1557,1557,1557,1557,1557,1557,1557,1557,1561,1561,1561,1561,1561,1557,1557,1557,1554,1554,1550,1550,1546,1543,1543,1539,1539,1539,1539,1536,1536,1536,1536,1536,1536,1536,1539,1539,1543,1546,1550,1550,1550,1564,1564,1568,1568,1568,1572,1575,1575,1575,1579,1579,1579,1575,1575,1575,1575,1575,1575,1572,1572,1568,1568,1568,1564,1564,1564,1561,1557,1557,1557,1550,1546,1546,1546,1543,1543,1539,1532,1532,1529,1529,1529,1525,1525,1525,1525,1525,1529,1529,1529,1529,1532,1532,1532,1536,1536,1536,1536,1536,1536,1536,1532,1532,1536,1536,1536,1536,1536,1536,1536,1536,1536,1539,1539,1539,1536,1536,1536,1536,1536,1536,1539,1539,1539,1539,1543,1546,1546,1546,1546,1546,1550,1550,1550,1554,1554,1554,1554,1554,1557,1557,1561,1561,1561,1564,1564,1564,1564,1564,1564,1564,1564,1564,1561,1561,1557,1557,1550,1550,1550,1546,1546,1539,1539,1539,1536,1536,1536,1536,1536,1536,1536,1536,1536,1536,1536,1539,1539,1539,1539,1539,1539,1539,1539,1539,1539,1539,1539,1539,1539,1539,1539,1539,1539,1539,1539,1539,1539,1539,1539,1539,1539,1543,1543,1543,1546,1546,1546,1550,1550,1550,1550,1554,1554,1554,1557,1557,1557,1557,1557,1561,1561,1561,1561,1561,1561,0,2473,2473,2473,2473,2473,2482,2482,2482,2482,2482,2473,2473,2473,2473,2464,2464,2464,2455,2455,2455,2455,2455,2455,2455
1512,1515,1515,1515,1515,1519,1519,1519,1519,1519,1522,1522,1522,1522,1522,1522,1522,1519,1519,1519,1519,1519,1519,1515,1515,1515,1515,1515,1515,1515,1515,1515,1515,1515,1515,1512,1512,1512,1512,1508,1508,1508,1508,1508,1508,1508,1508,1508,1508,1512,1512,1512,1512,1512,1512,1512,1512,1508,1508,1508,1505,1505,1505,1505,1505,1505,1505,1505,1505,1505,1505,1505,1512,1512,1512,1515,1515,1519,1519,1519,1519,1519,1519,1519,1522,1522,1522,1522,1522,1522,1522,1522,1522,1522,1522,1522,1522,1522,1522,1522,1519,1519,1519,1519,1522,1522,1522,1525,1525,1525,1525,0,0,0,7559,7559,7559,7645,7822,7822,7914,8009,8009,8305,0,0,0,0,0,0,0,0,0,0,0,0,0,0,0,0,0,0,0,0,1606,1598,1598,1590,1587,1587,1579,1572,1572,1564,1557,1554,1554,1554,1554,1554,1550,1546,1546,1543,1543,1543,1539,1536,1536,1532,1532,1532,1525,1522,1522,1522,1522,1522,1522,1522,1522,1522,1522,1522,1522,1522,1522,1522,1522,1519,1519,1519,1515,1515,1515,1515,1512,1512,1508,1508,1508,1505,1505,1505,1502,1502,1502,1502,1502,1505,1505,1508,1512,1515,1515,1515,1519,1519,1522,1522,1522,1522,1525,1522,1522,1525,1525,1525,1529,1529,1529,1529,1529,1529,1525,1525,1525,1525,1529,1529,1529,1529,1529,1529,1529,1529,1529,1532,1536,1536,1539,1539,1536,1536,1536,1536,1536,1532,1532,1532,1529,1529,1525,1525,1532,1532,1532,1532,1532,1529,1529,1529,1525,1525,1525,1525,1522,1522,1522,1519,1519,1515,1515,1515,1515,1515,1515,1515,1519,1519,1519,1522,1522,1525,1525,1529,1529,1529,1525,1525,1525,1525,1525,1525,1522,1522,1519,1519,1519,1519,1519,1519,1519,1519,1519,1522,1522,1522,1525,1525,1525,1529,1529,1529,1529,1529,1529,1529,1529,1525,1525,1525,1525,1525,1529,1529,1529,1532,1532,1536,1539,1539,1539,1546,1546,1546,1550,1550,1550,1554,1557,1557,1557,1557,1557,1557,1557,1557,1557,1561,1561,1561,1561,1561,1561,1564,1564,1564,1561,1561,1561,1557,1557,1554,1554,1550,1550,1546,1546,1546,1543,1539,1539,1539,1536,1536,1536,1536,1536,1536,1536,1536,1536,1539,1543,1550,1550,1550,1564,1564,1568,1568,1568,1572,1575,1575,1575,1579,1579,1579,1575,1575,1575,1575,1575,1575,1572,1572,1568,1568,1568,1564,1564,1564,1561,1557,1554,1554,1550,1546,1546,1543,1539,1539,1536,1529,1529,1529,1529,1529,1525,1525,1525,1525,1529,1529,1529,1529,1532,1536,1536,1536,1536,1536,1539,1539,1536,1536,1536,1536,1536,1536,1536,1536,1536,1536,1536,1536,1536,1536,1539,1539,1539,1536,1536,1536,1536,1536,1536,1539,1539,1539,1539,1543,1546,1546,1546,1546,1546,1546,1546,1546,1550,1550,1550,1550,1550,1550,1550,1550,1554,1554,1557,1557,1557,1561,1561,1561,1561,1561,1561,1557,1557,1554,1554,1550,1550,1546,1543,1543,1539,1536,1536,1536,1536,1536,1536,1536,1536,1536,1536,1536,1536,1536,1536,1536,1536,1536,1536,1536,1536,1536,1536,1536,1536,1536,1536,1536,1536,1536,1536,1536,1536,1536,1539,1539,1539,1539,1539,1539,1543,1543,1543,1546,1546,1546,1550,1550,1550,1550,1554,1554,1554,1557,1557,1557,1557,1557,1561,1561,1561,1561,1561,1561,0,2473,2473,2473,2473,2473,2482,2482,2482,2482,2482,2473,2473,2473,2473,2464,2464,2464,2455,2455,2455,2455,2455,2455,2455
1512,1515,1515,1512,1512,1515,1515,1515,1515,1515,1519,1519,1519,1519,1519,1519,1519,1519,1519,1519,1519,1519,1515,1515,1515,1515,1515,1515,1515,1515,1515,1515,1515,1512,1512,1512,1508,1508,1508,1508,1508,1508,1508,1508,1508,1508,1508,1508,1508,1512,1512,1512,1512,1512,1512,1512,1512,1508,1508,1508,1505,1505,1505,1505,1505,1505,1505,1505,1505,1505,1505,1505,1508,1508,1512,1515,1515,1515,1519,1519,1519,1519,1519,1519,1522,1522,1522,1522,1522,1522,1522,1522,1522,1522,1522,1522,1522,1519,1519,1519,1515,1515,1515,1515,1519,1519,1515,1515,1515,1519,1525,0,0,0,0,0,7559,7559,7645,7645,7732,8009,8009,0,0,0,0,0,0,0,0,0,0,0,0,0,0,0,0,0,0,0,0,0,1606,1598,1598,1590,1587,1587,1579,1572,1572,1564,1557,1554,1554,1554,1554,1554,1550,1546,1546,1543,1543,1543,1539,1536,1536,1532,1532,1532,1525,1522,1522,1522,1522,1522,1522,1522,1522,1522,1519,1519,1519,1519,1519,1519,1519,1515,1515,1515,1515,1515,1515,1512,1508,1508,1508,1508,1508,1505,1505,1505,1502,1502,1502,1502,1502,1505,1505,1508,1512,1512,1512,1515,1515,1515,1519,1519,1519,1519,1522,1522,1522,1522,1522,1522,1522,1525,1525,1525,1525,1525,1525,1525,1525,1525,1529,1529,1529,1529,1529,1529,1529,1529,1529,1532,1536,1536,1539,1539,1536,1536,1536,1536,1536,1532,1532,1532,1529,1529,1525,1525,1525,1525,1529,1529,1525,1525,1525,1525,1525,1525,1525,1525,1522,1522,1522,1519,1519,1515,1515,1515,1515,1515,1515,1515,1519,1519,1519,1522,1522,1525,1525,1525,1525,1525,1522,1522,1522,1519,1519,1519,1519,1519,1515,1515,1515,1515,1515,1515,1515,1515,1515,1519,1519,1519,1522,1522,1522,1525,1525,1525,1525,1525,1525,1525,1525,1525,1525,1525,1525,1525,1529,1529,1529,1532,1532,1536,1539,1539,1539,1546,1550,1550,1550,1550,1550,1554,1557,1557,1557,1557,1557,1561,1561,1561,1561,1561,1561,1561,1561,1561,1561,1564,1564,1564,1561,1561,1561,1557,1557,1554,1554,1550,1550,1546,1546,1546,1543,1539,1539,1539,1536,1536,1536,1536,1536,1536,1536,1536,1536,1539,1543,1550,1550,1550,1564,1564,0,0,1572,1572,1575,1575,1575,1579,1579,1579,1579,1579,1579,1575,1575,1572,1572,1572,1568,1568,1568,1564,1564,1557,1557,1554,1554,1554,1550,1546,1546,1543,1539,1539,1536,1529,1529,1529,1529,1529,1525,1525,1529,1529,1529,1532,1532,1532,1536,1536,1536,1539,1539,1539,1543,1543,1536,1536,1536,1536,1536,1536,1536,1536,1536,1536,1536,1536,1536,1532,1532,1532,1532,1532,1536,1532,1532,1532,1532,1532,1536,1536,1536,1539,1539,1539,1543,1543,1543,1543,1546,1546,1546,1546,1546,1546,1546,1546,1546,1546,1550,1550,1550,1554,1554,1554,1554,1554,1554,1554,1554,1554,1550,1550,1550,1546,1546,1543,1539,1539,1536,1532,1532,1532,1536,1536,1536,1536,1536,1536,1536,1536,1536,1536,1536,1536,1536,1536,1536,1536,1536,1536,1536,1536,1536,1536,1536,1536,1536,1536,1536,1536,1536,1532,1532,1532,1532,1532,1532,1536,1536,1536,1539,1539,1539,1539,1543,1543,1543,1546,1546,1546,1550,1550,1550,1554,1554,1554,1554,1557,1557,1557,1561,1561,1561,2482,2482,2492,2492,2492,2492,2492,2492,2482,2482,2482,2482,2482,2482,2473,2473,2473,2473,2473,2464,2464,2473,2473,2473
1512,1515,1515,1512,1512,1512,1512,1512,1512,1512,1515,1519,1519,1519,1519,1519,1519,1519,1519,1519,1519,1519,1515,1515,1515,1515,1515,1515,1515,1515,1515,1515,1515,1512,1512,1512,1508,1508,1508,1508,1508,1508,1508,1508,1508,1508,1508,1508,1508,1508,1508,1508,1508,1508,1508,1505,1505,1505,1502,1502,1502,1498,1498,1498,1498,1502,1502,1502,1502,1505,1505,1505,1508,1508,1512,1512,1512,1515,1519,1519,1519,1519,1522,1522,1522,1522,1522,1525,1525,1525,1525,1525,1522,1522,1519,1519,1519,1519,1519,1519,1515,1515,1512,1512,1515,1515,1515,1515,1515,1519,0,0,0,0,0,0,7559,7559,7645,7645,7732,0,0,0,0,0,0,0,0,0,0,0,0,0,0,0,0,0,0,0,0,0,1606,1606,1594,1590,1590,1583,1579,1579,1575,1568,1568,1561,1557,1554,1554,1554,1550,1550,1550,1546,1546,1543,1543,1543,1539,1539,1539,1536,1532,1532,1529,1525,1525,1522,1519,1519,1519,1515,1515,1515,1515,1515,1515,1512,1512,1512,1512,1512,1512,1512,1512,1512,1512,1512,1508,1508,1508,1508,1508,1508,1505,1505,1505,1505,1505,1505,1505,1508,1508,1508,1512,1512,1512,1515,1515,1515,1519,1519,1519,1519,1522,1522,1522,1522,1522,1522,1522,1525,1525,1525,1525,1525,1525,1525,1525,1525,1529,1529,1529,1529,1529,1529,1529,1529,1529,1532,1536,1536,1536,1536,1536,1536,1536,1536,1532,1532,1532,1529,1525,1525,1525,1522,1522,1522,1525,1525,1525,1522,1522,1522,1525,1525,1525,1525,1525,1525,1522,1519,1519,1519,1519,1519,1519,1515,1515,1515,1519,1519,1519,1519,1519,1522,1522,1522,1522,1522,1519,1519,1519,1519,1519,1519,1519,1519,1515,1515,1515,1515,1515,1515,1515,1515,1515,1519,1519,1519,1522,1522,1522,1525,1525,1525,1525,1525,1525,1525,1525,1525,1525,1525,1522,1522,1525,1525,1529,1529,1529,1532,1539,1539,1539,1546,1550,1550,1550,1550,1550,1554,1557,1557,1557,1557,1557,1561,1561,1561,1561,1564,1564,1564,1564,1564,1564,1564,1564,1564,1564,1564,1561,1561,1561,1564,1561,1557,1557,1554,1546,1546,1543,1543,1543,1543,1539,1539,1539,1539,1539,1539,1539,1539,0,0,0,0,0,0,0,0,0,0,1575,1575,1579,1579,1579,1579,1579,1579,1579,1579,1579,1575,1575,1572,1572,1572,1568,1568,1568,1564,1564,1557,1557,1554,1550,1550,1546,1543,1543,1539,1536,1536,1532,1529,1529,1529,1529,1529,1525,1525,1529,1529,1529,1532,1532,1532,1536,1536,1536,1539,1539,1539,1543,1543,1543,1539,1539,1539,1539,1539,1539,1536,1536,1536,1536,1536,1536,1532,1532,1532,1532,1532,1532,1529,1529,1529,1529,1529,1529,1532,1532,1532,1536,1536,1536,1539,1539,1539,1543,1543,1543,1543,1543,1546,1546,1546,1546,1546,1550,1550,1550,1554,1554,1554,1554,1554,1554,1554,1554,1554,1550,1550,1550,1546,1546,1543,1539,1539,1536,1532,1532,1532,1532,1532,1532,1532,1532,1532,1532,1532,1532,1532,1532,1536,1536,1536,1536,1532,1532,1536,1536,1536,1536,1536,1536,1536,1536,1536,1536,1536,1532,1532,1532,1532,1532,1532,1532,1532,1532,1532,1532,1532,1532,1536,1536,1536,1536,1539,1539,1539,1543,1546,1546,1546,1550,1550,1550,1554,1554,1554,1557,1557,1557,2492,2492,2492,2492,2492,2501,2501,2492,2492,2492,2492,2482,2482,2482,2482,2482,2482,2482,2482,2482,2482,2482,2482,2482
1512,1515,1515,1512,1512,1512,1512,1512,1512,1512,1515,1515,1515,1515,1515,1515,1515,1519,1519,1519,1519,1519,1515,1515,1515,1512,1512,1512,1512,1512,1512,1512,1512,1512,1512,1508,1508,1508,1505,1505,1505,1505,1505,1505,1505,1505,1505,1505,1505,1505,1505,1505,1505,1505,1502,1502,1502,1498,1498,1498,1498,1498,1498,1498,1498,1498,1502,1502,1502,1505,1505,1505,1508,1508,1512,1512,1512,1519,1519,1519,1519,1519,1522,1522,1525,1525,1525,1525,1525,1525,1525,1525,1522,1522,1519,1519,1519,1519,1519,1519,1515,1515,1512,1512,1515,1515,1515,1515,1515,1515,0,0,0,0,0,0,7559,7559,7645,7645,7732,0,0,0,0,0,0,0,0,0,0,0,0,0,0,0,0,0,0,0,0,0,1590,1590,1587,1583,1583,1583,1575,1575,1572,1564,1564,1557,1550,1550,1550,1550,1550,1550,1546,1546,1546,1543,1543,1543,1539,1539,1539,1536,1532,1532,1529,1525,1525,1522,1519,1519,1519,1515,1515,1515,1515,1515,1515,1512,1512,1512,1512,1512,1512,1512,1512,1512,1512,1512,1508,1508,1508,1508,1508,1508,1505,1505,1505,1505,1505,1505,1505,1508,1508,1508,1512,1512,1512,1512,1515,1515,1515,1515,1515,1519,1519,1519,1519,1519,1522,1522,1522,1522,1522,1522,1525,1525,1522,1522,1522,1525,1525,1525,1529,1529,1529,1529,1529,1532,1532,1532,1532,1532,1532,1532,1532,1532,1532,1532,1529,1529,1529,1529,1525,1525,1522,1522,1522,1522,1525,1525,1522,1522,1522,1522,1525,1525,1525,1525,1525,1525,1522,1522,1522,1519,1519,1519,1519,1519,1519,1519,1519,1519,1519,1519,1519,1522,1522,1522,1522,1522,1519,1519,1519,1515,1515,1515,1515,1519,1515,1512,1512,1515,1515,1515,1515,1515,1515,1519,1519,1519,1519,1519,1522,1525,1525,1525,1525,1525,1525,1525,1525,1522,1522,1522,1522,1522,1525,1525,1525,1529,1529,1532,1536,1543,1543,1546,1546,1546,1550,1554,1554,1554,1557,1557,1557,1557,1561,1561,1561,1564,1564,1564,1568,1564,1564,1564,1564,1568,1568,1568,1564,1564,1564,1564,1564,1564,1561,1557,1557,1554,1550,1550,1546,1543,1543,1543,1539,1539,1539,1539,1539,1539,1539,0,0,0,0,0,0,0,0,0,0,0,1575,1575,1579,1579,1579,1579,1579,1579,1579,1579,1575,1572,1572,1572,1568,1568,1568,1564,1564,1561,1561,1557,1557,1554,1546,1546,1543,1539,1539,1536,1532,1532,1529,1525,1525,1525,1525,1525,1525,1525,1529,1529,1532,1532,1536,1536,1539,1543,1543,1543,1546,1546,1546,1546,1546,1546,1546,1543,1543,1543,1543,1543,1539,1539,1536,1536,1536,1536,1532,1532,1532,1532,1532,1529,1529,1529,1529,1529,1529,1532,1532,1532,1536,1536,1536,1539,1539,1539,1543,1543,1543,1543,1543,1543,1543,1543,1543,1546,1546,1546,1546,1550,1550,1550,1550,1550,1550,1550,1550,1550,1546,1546,1546,1543,1543,1543,1539,1539,1536,1532,1532,1532,1532,1532,1532,1529,1529,1529,1529,1529,1532,1532,1532,1532,1532,1532,1536,1532,1532,1536,1536,1536,1536,1536,1532,1532,1532,1532,1532,1532,1532,1529,1529,1529,1529,1529,1525,1525,1532,1532,1532,1532,1532,1536,1536,1536,1536,1539,1539,1539,1543,1546,1546,1546,1550,1550,1550,1554,1554,1554,1557,1557,1557,2501,2492,2492,2492,2492,2492,2492,2492,2492,2492,2482,2482,2482,2482,2482,2482,2482,2482,2482,2482,2482,2482,2482,2482
1512,1512,1512,1512,1512,1512,1512,1512,1512,1512,1512,1515,1515,1515,1515,1515,1515,1515,1515,1515,1515,1515,1515,1515,1515,1512,1512,1512,1512,1512,1512,1512,1508,1508,1508,1505,1505,1505,1505,1505,1505,1505,1505,1505,1505,1505,1505,1505,1505,1505,1505,1505,1505,1505,1502,1502,1502,1498,1498,1498,1498,1498,1498,1498,1498,1498,1502,1502,1502,1505,1505,1505,1508,1508,1512,1515,1515,1519,1519,1519,1519,1519,1522,1522,1525,1525,1525,1525,1525,1525,1525,1525,1522,1522,1519,1519,1519,1519,1519,1519,1512,1512,1508,1508,1508,1508,1512,1512,1512,1512,0,0,0,0,0,0,0,0,0,0,0,0,0,0,0,0,0,0,0,0,0,0,0,0,0,0,0,0,0,0,0,0,1590,1590,1587,1583,1583,1583,1575,1575,1572,1564,1564,1557,1550,1550,1550,1550,1550,1550,1546,1546,1546,1546,1543,1543,1543,1539,1539,1536,1532,1532,1529,1522,1519,1519,1515,1515,1515,1512,1508,1508,1508,1508,1508,1508,1508,1508,1508,1508,1508,1505,1505,1505,1508,1508,1508,1508,1508,1508,1508,1508,1508,1508,1508,1508,1508,1508,1508,1508,1512,1512,1512,1512,1512,1512,1515,1515,1515,1515,1515,1515,1515,1515,1519,1519,1519,1519,1519,1519,1519,1519,1519,1519,1519,1519,1519,1519,1522,1522,1529,1529,1529,1529,1532,1532,1532,1532,1532,1532,1532,1532,1532,1532,1532,1532,1529,1529,1529,1529,1525,1525,1522,1522,1522,1522,1525,1525,1522,1522,1522,1522,1522,1522,1525,1525,1525,1525,1522,1522,1522,1519,1519,1519,1519,1519,1519,1519,1519,1519,1519,1519,1519,1519,1519,1515,1515,1515,1515,1515,1512,1512,1512,1512,1512,1512,1512,1512,1512,1512,1512,1515,1515,1515,1515,1519,1519,1519,1519,1519,1522,1525,1525,1525,1525,1525,1525,1525,1525,1522,1522,1522,1522,1525,1525,1525,1525,1529,1529,1532,1536,1543,1543,1546,1546,1546,1550,1554,1554,1554,1557,1557,1557,1557,1561,1561,1561,0,0,0,0,0,0,0,0,1568,1568,1568,1564,1564,1564,1564,1564,1564,1561,1557,1557,1554,1550,1550,1546,1543,1543,1543,1539,1539,1539,1539,1539,1539,1539,0,0,0,0,0,0,0,0,0,0,0,1579,1579,1579,1583,1583,1579,1579,1579,1579,1579,1572,1572,1572,1568,1568,1568,1564,1561,1561,1561,1557,1554,1554,1554,1546,1546,1543,1539,1539,1536,1532,1532,1529,1525,1525,1525,1525,1525,1525,1529,1532,1536,1536,1536,1539,1539,1543,1546,1546,1546,1546,1546,1550,1550,1550,1546,1546,1546,1546,1543,1543,1543,1539,1539,1536,1536,1536,1532,1532,1532,1529,1529,1529,1525,1525,1525,1525,1525,1525,1525,1525,1529,1529,1529,1532,1532,1532,1536,1536,1536,1539,1539,1539,1543,1539,1539,1539,1539,1543,1543,1543,1543,1543,1543,1546,1546,1546,1546,1546,1546,1546,1546,1543,1539,1539,1536,1536,1536,1532,1532,1532,1529,1529,1529,1529,1529,1529,1529,1529,1529,1532,1532,1532,1532,1532,1532,1536,1536,1536,1536,1536,1536,1536,1536,1532,1532,1532,1532,1532,1532,1532,1529,1529,1529,1529,1529,1525,1525,1529,1529,1529,1529,1529,1529,1529,1529,1529,1532,1536,1536,1539,1539,1539,1543,1546,1546,1546,1550,1550,1550,1554,1554,1554,2501,2492,2492,2492,2492,2492,2492,2492,2492,2492,2482,2482,2482,2482,2482,2482,2482,2482,2482,2482,2482,2482,2482,2482
1515,1512,1512,1512,1512,1512,1512,1508,1508,1508,1512,1512,1512,1512,1512,1512,1512,1515,1515,1515,1515,1515,1515,1515,1515,1512,1512,1512,1512,1512,1512,1512,1508,1508,1508,1505,1505,1505,1505,1505,1505,1505,1505,1505,1505,1505,1505,1505,1505,1502,1502,1502,1502,1502,1502,1498,1498,1495,1495,1495,1495,1495,1495,1495,1495,1495,1498,1498,1502,1502,1502,1505,1508,1508,1512,1515,1515,1519,1519,1522,1522,1522,1525,1525,1525,1525,1525,1525,1525,1525,1525,1525,1525,1522,1519,1519,1519,1519,1519,1519,1512,1512,1508,1508,1508,1508,1512,1512,1512,1512,1512,0,0,0,0,0,0,0,0,0,0,0,0,0,0,0,0,0,0,0,0,0,0,0,0,0,0,0,0,0,0,0,1568,1568,1568,1572,1575,1575,1572,1572,1564,1561,1561,1554,1550,1546,1546,1546,1546,1546,1546,1543,1543,1543,1539,1539,1536,1536,1536,1532,1525,1525,1522,1519,1519,1512,1512,1508,1508,1505,1505,1505,1505,1502,1502,1502,1502,1502,1502,1502,1505,1505,1505,1505,1505,1505,1505,1505,1505,1508,1508,1508,1508,1508,1508,1508,1512,1512,1512,1512,1515,1515,1515,1515,1515,1515,1515,1515,1519,1519,1519,1515,1515,1515,1519,1519,1519,1519,1519,1519,1519,1519,1519,1519,1519,1519,1519,1519,1522,1522,1522,1522,1525,1525,1525,1525,1525,1525,1525,1525,1529,1529,1529,1529,1529,1529,1525,1525,1525,1522,1522,1522,1522,1522,1522,1522,1522,1522,1522,1522,1522,1522,1522,1522,1522,1522,1522,1522,1522,1522,1522,1522,1519,1519,1519,1519,1519,1519,1519,1519,1519,1519,1519,1519,1515,1515,1515,1512,1512,1512,1508,1508,1508,1508,1508,1508,1508,1512,1512,1512,1512,1515,1515,1515,1519,1519,1519,1519,1522,1522,1522,1525,1525,1525,1525,1525,1525,1525,1525,1525,1525,1525,1525,1525,1529,1525,1525,1529,1529,1532,1536,1543,1543,1546,1546,1546,1546,1550,1550,1554,1554,1554,1557,1557,1557,1557,1561,0,0,0,0,0,0,0,0,0,0,0,0,0,0,0,0,0,0,0,0,0,0,0,0,0,0,0,0,0,0,0,0,0,0,0,0,0,0,0,0,0,0,0,0,0,0,0,0,0,0,0,0,0,0,0,1572,1572,1572,1568,1568,1568,1564,1561,1561,1561,1557,1554,1554,1554,1546,1546,1543,1539,1539,1536,1532,1532,1529,1525,1525,1525,1525,1525,1525,1529,1532,1536,1536,1536,1539,1539,1543,1546,1546,1546,1546,1546,1550,1550,1546,1546,1546,1546,1546,1543,1543,1543,1539,1539,1539,1536,1536,1532,1529,1529,1529,1525,1525,1522,1522,1522,1522,1519,1519,1522,1522,1522,1525,1525,1529,1529,1529,1532,1532,1532,1536,1536,1536,1536,1536,1536,1536,1539,1543,1543,1543,1543,1543,1543,1546,1546,1546,1546,1546,1546,1546,1546,1543,1539,1539,1536,1536,1536,1532,1532,1532,1529,1529,1529,1529,1529,1529,1529,1529,1529,1529,1529,1529,1532,1532,1532,1536,1536,1536,1536,1536,1536,1536,1536,1532,1532,1532,1532,1532,1532,1529,1529,1529,1525,1525,1525,1522,1522,1522,1522,1522,1522,1522,1522,1525,1522,1522,1525,1529,1529,1532,1536,1536,1536,1539,1539,1543,1543,1543,1546,1550,1550,1550,2501,2492,2492,2492,2492,2492,2492,2492,2482,2482,2482,2482,2482,2482,2482,2482,2482,2482,2482,2482,2482,2492,2492,2492
1515,1515,1515,1512,1512,1512,1512,1508,1508,1508,1512,1512,1512,1512,1512,1512,1512,1515,1515,1515,1515,1515,1515,1512,1512,1512,1508,1508,1508,1508,1508,1508,1508,1505,1505,1505,1505,1505,1502,1502,1502,1502,1502,1502,1502,1502,1502,1502,1502,1502,1502,1502,1498,1498,1498,1495,1495,1492,1492,1492,1492,1492,1492,1492,1495,1495,1498,1498,1502,1502,1502,1505,1508,1508,1512,1515,1515,1519,1522,1522,1522,1522,1525,1525,1529,1529,1529,1529,1529,1529,1529,1529,1525,1522,1519,1519,1519,1519,1519,1519,1515,1515,1512,1512,1512,1512,1512,1515,1515,1512,1512,0,0,0,0,0,0,0,0,0,0,0,0,0,0,0,0,0,0,0,0,0,0,0,0,0,0,0,0,0,0,0,1568,1568,1564,1564,1564,1564,1564,1564,1557,1550,1550,1546,1543,1543,1543,1543,1543,1543,1539,1536,1536,1536,1532,1532,1532,1529,1529,1525,1522,1522,1515,1512,1512,1508,1505,1502,1502,1502,1505,1505,1505,1502,1502,1502,1502,1502,1502,1502,1505,1505,1505,1505,1505,1505,1505,1505,1505,1508,1508,1508,1512,1512,1512,1512,1515,1515,1512,1512,1515,1515,1515,1515,1515,1515,1515,1515,1519,1519,1519,1515,1515,1515,1515,1515,1515,1515,1515,1515,1515,1515,1515,1515,1512,1512,1512,1515,1515,1515,1515,1515,1519,1519,1519,1519,1519,1522,1522,1522,1522,1522,1522,1522,1522,1522,1522,1522,1522,1522,1522,1522,1522,1522,1522,1522,1522,1522,1519,1519,1522,1522,1522,1522,1522,1522,1522,1522,1522,1522,1522,1522,1522,1522,1522,1519,1519,1519,1519,1519,1519,1519,1519,1519,1515,1515,1515,1512,1512,1512,1508,1508,1508,1508,1508,1508,1508,1508,1512,1512,1512,1515,1515,1515,1519,1519,1519,1519,1522,1522,1522,1522,1522,1525,1525,1525,1525,1525,1525,1525,1525,1525,1525,1525,1529,1529,1529,1532,1532,1536,1539,1543,1543,1546,1546,1546,1546,1550,1550,1550,1554,1554,1550,1550,1554,1554,0,0,0,0,0,0,0,0,0,0,0,0,0,0,0,0,0,0,0,0,0,0,0,0,0,0,0,0,0,0,0,0,0,0,0,0,0,0,0,0,0,0,0,0,0,0,0,0,0,0,0,0,0,0,1572,1572,1568,1564,1564,1564,1564,1564,1561,1557,1557,1557,1557,1554,1554,1550,1546,1546,1543,1536,1536,1532,1532,1532,1529,1525,1525,1525,1525,1525,1525,1525,1529,1532,1532,1536,1539,1539,1543,1543,1543,1543,1546,1546,1546,1546,1546,1546,1543,1543,1543,1543,1543,1539,1539,1539,1536,1536,1536,1532,1529,1529,1529,1525,1525,1522,1522,1522,1522,1519,1519,1522,1522,1522,1525,1525,1529,1529,1529,1532,1532,1532,1536,1536,1536,1536,1536,1536,1536,1536,1536,1536,1536,1539,1539,1539,1543,1543,1543,1543,1543,1543,1543,1543,1539,1539,1539,1536,1536,1536,1532,1532,1532,1529,1529,1529,1529,1529,1529,1529,1529,1529,1529,1529,1529,1532,1532,1532,1532,1532,1536,1536,1536,1539,1539,1536,1536,1536,1536,1532,1532,1532,1529,1529,1529,1525,1522,1522,1522,1519,1519,1519,1515,1515,1515,1519,1525,1522,1522,1525,1529,1529,1532,1536,1536,1536,1539,1539,1543,1543,1543,1546,1550,1550,1550,2501,2492,2492,2492,2492,2492,2492,2492,2482,2482,2482,2482,2482,2482,2482,2482,2482,2482,2482,2482,2482,2482,2482,2482
1515,1515,1515,1512,1512,1512,1512,1508,1508,1508,1508,1508,1508,1508,1508,1508,1508,1512,1512,1512,1512,1512,1512,1508,1508,1508,1508,1508,1508,1508,1505,1505,1505,1505,1505,1502,1502,1502,1502,1502,1502,1502,1502,1502,1502,1502,1502,1502,1502,1502,1502,1498,1498,1498,1498,1495,1495,1492,1492,1492,1492,1492,1492,1492,1495,1495,1498,1498,1502,1502,1502,1505,1508,1508,1512,1515,1515,1519,1522,1522,1522,1525,1525,1525,1529,1529,1529,1529,1529,1529,1529,1525,1525,1522,1519,1519,1519,1519,1519,1519,1515,1515,1512,1512,1512,1512,1512,1512,1512,1512,1512,0,0,0,0,0,0,0,0,0,0,0,0,0,0,0,0,0,0,0,0,0,0,0,0,0,0,0,0,0,0,0,0,0,1543,1543,1550,1550,1554,1564,1557,1550,1550,1546,1543,1543,1543,1543,1543,1543,1539,1536,1536,1536,1532,1532,1532,1529,1529,1525,1522,1522,1515,1512,1512,1508,1505,1502,1502,1502,1498,1498,1498,1498,1498,1498,1498,1498,1498,1498,1498,1498,1498,1502,1502,1502,1505,1505,1505,1508,1508,1508,1512,1512,1512,1512,1515,1515,1515,1519,1519,1519,1519,1519,1515,1515,1515,1515,1519,1519,1519,1519,1519,1519,1515,1515,1515,1515,1512,1512,1512,1512,1512,1508,1508,1512,1508,1508,1512,1512,1512,1512,1515,1515,1515,1519,1519,1522,1522,1522,1522,1522,1522,1522,1522,1522,1522,1522,1522,1522,1522,1522,1522,1522,1522,1522,1522,1522,1519,1519,1522,1522,1522,1522,1522,1522,1522,1522,1519,1519,1519,1519,1522,1522,1522,1519,1519,1519,1519,1519,1519,1519,1515,1515,1515,1512,1512,1512,1508,1508,1505,1505,1505,1505,1505,1505,1505,1508,1508,1512,1512,1515,1515,1515,1515,1519,1519,1519,1522,1522,1522,1522,1522,1525,1525,1529,1529,1529,1529,1529,1529,1529,1529,1529,1529,1529,1532,1536,1536,1536,1543,1546,1546,1546,1546,1546,1550,1550,1550,1550,1554,1554,1550,1550,1554,1554,0,0,0,0,0,0,0,0,0,0,0,0,0,0,0,0,0,0,0,0,0,0,0,0,0,0,0,0,0,0,0,0,0,0,0,0,0,0,0,0,0,0,0,0,0,0,0,1590,1587,1587,1587,1575,1575,1572,1564,1564,1564,1561,1561,1561,1557,1557,1557,1554,1554,1554,1554,1550,1550,1546,1546,1546,1539,1532,1532,1532,1529,1529,1525,1525,1525,1522,1522,1525,1525,1525,1529,1532,1532,1536,1539,1539,1543,1543,1543,1543,1546,1546,1546,1546,1546,1546,1543,1543,1543,1543,1543,1539,1539,1539,1536,1536,1536,1532,1529,1529,1525,1525,1525,1522,1522,1522,1519,1519,1519,1519,1519,1522,1522,1522,1525,1525,1525,1525,1529,1529,1532,1532,1532,1532,1532,1532,1532,1532,1532,1532,1532,1536,1536,1536,1536,1536,1539,1539,1539,1539,1539,1539,1539,1539,1539,1536,1536,1536,1532,1532,1532,1529,1529,1529,1529,1529,1529,1529,1529,1529,1529,1529,1529,1532,1532,1532,1532,1532,1536,1536,1536,1539,1539,1539,1536,1536,1536,1532,1532,1532,1532,1529,1529,1525,1522,1522,1522,1519,1519,1519,1515,1515,1515,1519,1519,1519,1519,1519,1522,1522,1525,1529,1529,1532,1532,1532,1536,1539,1539,1543,1546,1546,1546,2492,2492,2492,2482,2482,2492,2492,2482,2482,2482,2482,2482,2482,2482,2482,2482,2482,2482,2482,2473,2473,2473,2482,2482
1519,1515,1515,1512,1512,1512,1508,1508,1508,1508,1508,1508,1508,1508,1508,1508,1508,1508,1508,1508,1508,1508,1508,1508,1508,1508,1508,1508,1508,1508,1505,1505,1505,1505,1505,1502,1502,1502,1502,1502,1502,1502,1502,1502,1502,1502,1502,1502,1502,1502,1502,1498,1498,1498,1495,1495,1495,1492,1492,1492,1492,1492,1492,1492,1492,1495,1498,1498,1502,1502,1502,1505,1508,1508,1512,1515,1515,1519,1522,1522,1522,1525,1529,1529,1532,1532,1532,1532,1532,1529,1529,1525,1525,1522,1519,1519,1519,1519,1519,1519,1519,1519,1512,1512,1512,1512,1512,1512,1512,1515,0,0,0,0,0,0,0,0,0,0,0,0,0,0,0,0,0,0,0,0,0,0,0,0,0,0,0,0,0,0,0,0,0,0,1543,1543,1550,1550,1554,1554,1550,1543,1543,1539,1536,1536,1536,1536,1532,1532,1532,1529,1529,1529,1525,1525,1522,1519,1519,1515,1512,1512,1512,1505,1505,1502,1502,1498,1498,1495,1495,1495,1495,1495,1495,1495,1495,1495,1495,1495,1498,1498,1498,1498,1502,1502,1502,1505,1505,1508,1508,1508,1512,1515,1515,1519,1519,1519,1519,1522,1522,1522,1522,1522,1519,1519,1519,1519,1519,1519,1519,1519,1519,1519,1515,1515,1515,1515,1512,1512,1512,1512,1512,1508,1508,1512,1508,1508,1512,1512,1512,1512,1515,1515,1515,1515,1515,1515,1519,1519,1519,1519,1519,1519,1519,1519,1519,1519,1522,1522,1519,1519,1519,1522,1522,1522,1522,1522,1519,1519,1522,1522,1522,1522,1522,1522,1522,1522,1519,1519,1519,1519,1519,1522,1522,1522,1522,1519,1519,1519,1519,1519,1515,1515,1512,1508,1508,1505,1505,1505,1505,1505,1505,1505,1505,1505,1505,1505,1508,1512,1512,1512,1515,1515,1515,1519,1519,1519,1522,1522,1522,1525,1529,1529,1529,1529,1529,1529,1532,1529,1529,1532,1532,1532,1532,1532,1536,1539,1539,1539,1543,1546,1543,1543,1546,1546,1546,1546,1546,1550,1550,1546,1546,1546,1550,1550,0,0,0,0,0,0,0,0,0,0,0,0,0,0,0,0,0,0,0,0,0,0,0,0,0,0,0,0,0,0,0,0,0,0,0,0,0,0,0,0,0,0,0,0,0,0,0,1590,1587,1587,1587,1575,1575,1572,1564,1564,1564,1561,1561,1561,1557,1557,1557,1554,1554,1554,1554,1550,1550,1546,1546,1546,1539,1532,1532,1532,1529,1529,1525,1525,1525,1522,1522,1525,1525,1525,1525,1532,1532,1532,1536,1536,1536,1539,1539,1539,1539,1539,1543,1543,1543,1543,1543,1543,1543,1543,1543,1539,1539,1539,1536,1532,1532,1529,1529,1529,1525,1522,1522,1522,1519,1519,1519,1515,1515,1519,1519,1519,1522,1522,1522,1522,1522,1522,1525,1525,1525,1529,1529,1529,1529,1529,1529,1529,1529,1529,1529,1532,1532,1536,1536,1536,1539,1539,1539,1539,1539,1539,1539,1539,1539,1539,1536,1536,1536,1536,1536,1532,1532,1532,1532,1532,1532,1529,1529,1529,1529,1529,1529,1532,1532,1532,1532,1532,1536,1536,1536,1539,1539,1539,1536,1536,1536,1532,1532,1532,1529,1525,1525,1525,1519,1519,1519,1515,1515,1515,1512,1512,1512,1512,1512,1512,1512,1515,1515,1515,1519,1522,1522,1525,1529,1529,1532,1536,1536,1536,1539,1543,1543,1543,1546,1546,2482,2482,2482,2482,2482,2473,2473,2473,2473,2473,2473,2473,2473,2473,2482,2482,2473,2473,2473,2482,2482
1519,1515,1515,1515,1512,1512,1508,1508,1508,1508,1508,1508,1508,1508,1508,1508,1508,1508,1508,1508,1508,1508,1508,1508,1508,1505,1505,1505,1505,1502,1502,1502,1502,1502,1502,1498,1498,1498,1498,1498,1498,1498,1498,1502,1502,1502,1502,1502,1502,1498,1498,1498,1498,1498,1495,1495,1495,1492,1492,1492,1492,1492,1492,1492,1492,1495,1498,1498,1502,1502,1502,1505,1508,1508,1512,1515,1519,1519,1522,1525,1525,1529,1532,1532,1536,1536,1536,1532,1532,1532,1532,1525,1525,1522,1519,1519,1519,1519,1519,1519,1519,1519,1515,1512,1512,1512,1515,1515,1515,1515,0,0,0,0,0,0,0,0,0,0,0,0,0,0,0,0,0,0,0,0,0,0,0,0,0,0,0,0,1515,1515,0,0,0,0,1543,1529,1529,1529,1536,1536,1536,1532,1532,1529,1525,1525,1525,1525,1525,1525,1525,1522,1522,1519,1515,1515,1515,1512,1512,1508,1508,1508,1505,1498,1498,1498,1495,1495,1495,1495,1492,1492,1492,1492,1492,1492,1495,1495,1495,1495,1498,1498,1498,1498,1502,1502,1502,1505,1505,1508,1512,1512,1515,1519,1519,1522,1522,1525,1525,1525,1525,1525,1522,1522,1519,1519,1519,1519,1519,1519,1519,1519,1519,1519,1515,1515,1515,1512,1512,1512,1508,1508,1508,1508,1508,1508,1508,1508,1512,1512,1512,1512,1512,1512,1515,1515,1515,1515,1515,1515,1515,1519,1519,1519,1519,1519,1519,1519,1522,1522,1519,1519,1519,1522,1522,1522,1522,1522,1522,1522,1522,1522,1522,1522,1522,1522,1522,1522,1519,1519,1519,1519,1519,1522,1522,1522,1522,1519,1519,1519,1519,1519,1515,1515,1512,1508,1508,1505,1505,1505,1505,1505,1505,1505,1505,1505,1505,1505,1508,1512,1512,1512,1515,1515,1515,1519,1519,1519,1522,1522,1522,1525,1529,1529,1529,1529,1529,1529,1532,1529,1529,1532,1532,1532,1532,1532,1536,1539,1539,1539,1543,1543,1543,1543,1546,1546,1546,1546,1546,1546,1546,1546,1546,1546,1550,1550,8515,8515,9091,9091,9610,9893,9893,10350,10850,0,0,0,0,0,0,0,0,0,0,0,0,0,0,0,0,0,0,0,0,0,0,0,0,0,0,0,0,0,0,0,0,0,0,0,0,0,0,0,1587,1587,1587,1572,1572,1561,1557,1557,1554,1554,1554,1554,1550,1550,1550,1546,1546,1546,1546,1546,1546,1543,1539,1539,1532,1529,1529,1525,1525,1525,1525,1522,1522,1519,1519,1522,1522,1522,1525,1529,1529,1529,1529,1529,1532,1532,1532,1536,1536,1536,1536,1539,1539,1539,1539,1539,1539,1539,1539,1536,1536,1536,1532,1532,1532,1529,1525,1525,1525,1522,1522,1522,1519,1519,1519,1515,1515,1519,1519,1519,1522,1522,1522,1522,1522,1522,1525,1525,1525,1529,1529,1529,1529,1529,1529,1529,1529,1529,1529,1532,1532,1532,1532,1532,1536,1539,1539,1539,1539,1539,1539,1539,1539,1539,1536,1536,1536,1536,1536,1532,1532,1532,1532,1532,1529,1529,1529,1529,1529,1529,1529,1532,1532,1532,1536,1536,1536,1539,1539,1539,1543,1543,1539,1539,1539,1536,1532,1532,1529,1525,1525,1522,1519,1519,1515,1512,1512,1512,1508,1508,1508,1505,1505,1505,1505,1508,1512,1512,1519,1522,1522,1525,1529,1529,1532,1536,1536,1536,1539,1543,1543,1543,1546,1546,0,2482,2482,2482,2482,2473,2473,2473,2473,2473,2473,2473,2473,2473,2473,2473,2473,2473,2473,2473,2473
1519,1515,1515,1512,1508,1508,1505,1505,1505,1505,1505,1505,1505,1505,1505,1505,1505,1505,1505,1505,1505,1505,1505,1505,1505,1502,1502,1502,1502,1502,1502,1502,1498,1498,1498,1495,1495,1495,1495,1495,1495,1495,1498,1498,1498,1498,1498,1498,1498,1498,1498,1498,1498,1498,1495,1495,1495,1492,1492,1492,1492,1492,1492,1492,1492,1495,1498,1498,1502,1502,1502,1505,1508,1508,1512,1515,1519,1519,1522,1525,1525,1529,1532,1532,1536,1536,1536,1532,1532,1532,1529,1525,1525,1522,1519,1519,1519,1519,1519,1519,1519,1519,1515,1512,1512,1512,1515,1515,1515,1515,0,0,0,0,0,0,0,0,0,0,0,0,0,0,0,0,0,0,0,0,0,0,0,0,0,0,0,0,1488,1488,1488,1488,1492,0,0,1512,1512,1512,1515,1519,1519,1519,1519,1519,1519,1525,1525,1525,1525,1525,1525,1522,1522,1519,1515,1515,1515,1512,1512,1508,1508,1508,1505,1498,1498,1498,1495,1495,1495,1495,1492,1492,1492,1492,1492,1492,1495,1495,1495,1495,1495,1495,1498,1498,1502,1502,1502,1505,1505,1508,1512,1512,1515,1519,1519,1522,1522,1525,1525,1525,1525,1525,1522,1522,1522,1522,1522,1522,1522,1522,1522,1519,1519,1519,1515,1515,1515,1512,1512,1512,1508,1508,1508,1508,1508,1508,1508,1508,1508,1512,1512,1512,1512,1512,1515,1515,1515,1515,1515,1515,1515,1519,1519,1519,1522,1522,1522,1522,1522,1522,1522,1522,1522,1522,1522,1522,1522,1522,1522,1522,1522,1522,1522,1522,1522,1522,1522,1522,1519,1519,1519,1519,1519,1519,1519,1519,1522,1519,1519,1519,1519,1519,1515,1515,1512,1508,1508,1505,1505,1505,1505,1505,1505,1505,1505,1505,1505,1505,1508,1512,1512,1512,1515,1515,1519,1519,1519,1522,1522,1522,1525,1525,1529,1529,1529,1532,1532,1532,1532,1532,1532,1532,1532,1532,1536,1536,1536,1536,1539,1539,1539,1543,1539,1539,1539,1539,1539,1546,1546,1546,1546,1546,1546,1546,0,0,8515,8515,9091,9091,9610,9893,9893,10350,10850,0,0,0,0,0,0,0,0,0,0,0,0,0,0,0,0,0,0,0,0,0,0,0,0,0,0,0,0,0,0,0,0,0,0,0,0,0,0,0,1587,1587,1587,1572,1572,1561,1557,1557,1554,1546,1546,1543,1543,1543,1543,1539,1539,1539,1539,1539,1539,1536,1532,1532,1529,1525,1525,1522,1522,1522,1519,1519,1519,1519,1519,1519,1519,1522,1522,1525,1525,1529,1529,1529,1532,1532,1532,1536,1536,1536,1536,1539,1539,1539,1539,1539,1539,1539,1539,1536,1536,1536,1532,1532,1532,1529,1525,1525,1525,1522,1522,1519,1519,1515,1515,1515,1515,1515,1515,1515,1519,1519,1519,1519,1519,1519,1522,1522,1522,1525,1525,1525,1525,1525,1525,1525,1525,1525,1525,1529,1529,1529,1532,1532,1536,1536,1539,1539,1539,1539,1539,1539,1539,1539,1539,1539,1536,1536,1536,1536,1532,1532,1532,1529,1529,1529,1525,1525,1525,1525,1529,1532,1532,1532,1536,1536,1539,1543,1543,1543,1546,1546,1543,1543,1543,1539,1536,1536,1529,1525,1525,1522,1522,1522,1515,1512,1512,1512,1508,1508,1508,1505,1505,1505,1505,1508,1512,1512,1512,1519,1519,1522,1525,1525,1529,1529,1529,1532,1539,1539,1539,1543,1543,1543,1543,1543,1543,2473,2473,2473,2473,2464,2464,2464,2464,2464,2464,2464,2464,2464,2464,2464,2464,2464,2464
1519,1515,1515,1512,1508,1508,1505,1505,1505,1505,1502,1502,1502,1502,1502,1502,1502,1502,1502,1502,1502,1502,1502,1498,1498,1498,1498,1498,1498,1502,1502,1502,1498,1498,1498,1495,1495,1495,1495,1495,1495,1495,1498,1498,1498,1498,1498,1498,1498,1498,1498,1498,1498,1498,1495,1495,1495,1492,1492,1492,1492,1492,1492,1492,1492,1495,1498,1498,1502,1502,1502,1505,1508,1508,1512,1515,1519,1519,1522,1525,1525,1529,1532,1532,1536,1536,1536,1532,1532,1532,1529,1525,1525,1522,1519,1519,1515,1515,1515,1515,1519,1519,1515,1515,1515,1515,1515,1515,1519,1519,0,0,0,0,0,0,0,0,0,0,0,0,0,0,0,0,0,0,0,0,0,0,0,0,0,0,0,0,1488,1488,1488,1488,1492,0,0,1512,1512,1512,1515,1519,1519,1519,1519,1519,1515,1515,1515,1515,1515,1515,1512,1512,1512,1508,1505,1505,1505,1502,1502,1502,1502,1502,1498,1495,1495,1495,1492,1492,1492,1492,1492,1492,1492,1492,1492,1492,1492,1495,1495,1495,1495,1495,1498,1498,1502,1502,1502,1505,1505,1508,1515,1515,1515,1522,1522,1522,1529,1529,1529,1529,1529,1529,1525,1525,1525,1522,1522,1522,1522,1522,1522,1519,1519,1519,1515,1515,1515,1512,1512,1512,1508,1508,1508,1508,1508,1508,1508,1508,1508,1512,1512,1512,1512,1512,1515,1515,1515,1515,1515,1515,1515,1519,1519,1519,1519,1519,1519,1519,1522,1522,1522,1522,1522,1522,1522,1522,1522,1522,1522,1522,1522,1522,1522,1522,1522,1519,1519,1519,1519,1519,1519,1519,1519,1519,1519,1519,1522,1519,1519,1519,1519,1519,1515,1515,1512,1508,1508,1505,1505,1505,1505,1505,1505,1505,1505,1505,1508,1508,1508,1512,1512,1515,1519,1519,1519,1522,1522,1522,1525,1525,1525,1529,1529,1529,1532,1532,1532,1532,1532,1532,1532,1536,1532,1532,1536,1536,1536,1536,1539,1539,1539,1543,1539,1539,1539,1539,1539,1539,1539,1539,1539,1539,1539,1546,0,7914,7914,8305,9091,9091,9610,9893,9893,10350,10850,0,0,0,0,0,0,0,0,0,0,0,0,0,0,0,0,0,0,0,0,0,0,0,0,0,0,0,0,0,0,0,0,0,0,0,0,0,0,0,0,0,0,0,0,0,0,0,0,1546,1546,1543,1543,1543,1543,1539,1539,1539,1539,1539,1539,1536,1532,1532,1529,1525,1525,1522,1522,1522,1519,1519,1519,1519,1519,1519,1519,1522,1522,1525,1525,1525,1525,1525,1529,1529,1529,1529,1532,1532,1532,1532,1536,1536,1536,1536,1536,1536,1536,1536,1532,1532,1532,1529,1529,1529,1525,1525,1522,1519,1519,1519,1515,1515,1515,1512,1512,1512,1512,1515,1515,1515,1515,1515,1515,1515,1519,1519,1519,1522,1522,1522,1522,1522,1522,1522,1522,1522,1525,1529,1529,1529,1532,1532,1536,1536,1539,1539,1543,1543,1543,1543,1543,1539,1539,1539,1539,1536,1536,1536,1532,1532,1532,1529,1529,1529,1525,1525,1525,1525,1529,1532,1532,1536,1539,1539,1539,1543,1543,1543,1546,1546,1543,1543,1543,1539,1536,1536,1529,1525,1525,1522,1519,1519,1515,1512,1512,1512,1505,1505,1505,1505,1505,1502,1502,1502,1505,1505,1508,1512,1512,1515,1519,1519,1522,1525,1525,1532,1536,1539,1539,1539,1543,1539,1539,1543,1543,1543,2464,2464,2464,2455,2455,2455,2455,2455,2455,2455,2455,2455,2455,2455,2464,2464,2464
1519,1515,1515,1512,1508,1508,1505,1505,1505,1505,1502,1502,1502,1502,1502,1502,1502,1502,1502,1502,1502,1502,1502,1498,1498,1498,1498,1498,1498,1495,1495,1495,1495,1495,1495,1495,1495,1495,1495,1495,1495,1495,1495,1498,1498,1498,1498,1498,1498,1498,1498,1498,1495,1495,1495,1495,1495,1492,1492,1492,1492,1492,1492,1492,1492,1495,1498,1498,1502,1502,1502,1508,1508,1508,1515,1515,1522,1522,1522,1529,1529,1529,1532,1532,1536,1536,1536,1536,1532,1532,1529,1525,1525,1522,1519,1519,1515,1515,1515,1515,1519,1519,1515,1515,1515,1515,1519,1519,1519,1519,0,0,0,0,0,0,0,0,0,0,0,0,0,0,0,0,0,0,0,0,0,0,0,0,0,0,0,0,1488,1488,1469,1469,1475,1475,0,1498,1498,1498,1502,1508,1508,1508,1508,1508,1505,1505,1505,1505,1505,1505,1505,1502,1502,1498,1498,1498,1495,1495,1495,1495,1495,1495,1492,1492,1492,1492,1492,1492,1492,1492,1492,1492,1492,1492,1492,1492,1492,1495,1495,1495,1495,1498,1498,1498,1502,1502,1505,1505,1505,1512,1515,1515,1519,1522,1525,1525,1529,1529,1529,1529,1529,1529,1525,1525,1525,1525,1525,1525,1522,1522,1522,1519,1519,1519,1515,1515,1515,1512,1508,1508,1505,1505,1505,1505,1505,1505,1505,1505,1508,1508,1508,1508,1508,1508,1512,1512,1512,1515,1515,1515,1515,1515,1515,1519,1519,1519,1519,1519,1522,1522,1522,1522,1522,1522,1525,1522,1522,1522,1522,1522,1519,1519,1519,1519,1519,1519,1515,1515,1515,1515,1515,1515,1515,1515,1515,1519,1519,1519,1519,1519,1519,1519,1515,1515,1512,1508,1508,1505,1505,1505,1505,1505,1505,1505,1505,1508,1508,1508,1512,1515,1515,1519,1522,1522,1522,1525,1522,1522,1525,1525,1525,1529,1529,1529,1532,1532,1532,1532,1532,1532,1532,1532,1532,1532,1536,1536,1536,1536,1536,1536,1536,1539,1536,1536,1536,1536,1536,1536,1536,1536,1536,1536,1536,0,0,7914,7914,8305,0,0,0,0,0,0,0,0,0,0,0,0,0,0,0,0,0,0,0,0,0,0,0,0,0,0,0,0,0,0,0,0,0,0,0,0,0,0,0,0,0,0,0,0,0,0,0,0,0,0,0,0,0,0,0,1536,1536,1536,1536,1536,1536,1532,1532,1532,1532,1532,1532,1529,1525,1525,1522,1519,1519,1519,1519,1519,1515,1515,1515,1515,1515,1515,1515,1519,1519,1522,1522,1522,1522,1522,1522,1522,1522,1525,1525,1525,1529,1529,1529,1529,1532,1532,1532,1532,1532,1532,1532,1532,1529,1529,1529,1525,1525,1525,1522,1519,1519,1519,1515,1515,1515,1512,1512,1512,1512,1515,1515,1515,1515,1515,1515,1515,1519,1519,1519,1522,1522,1522,1522,1522,1522,1522,1522,1522,1525,1529,1529,1529,1532,1532,1536,1536,1539,1539,1539,1539,1539,1539,1539,1539,1539,1539,1536,1536,1536,1536,1532,1532,1532,1529,1529,1529,1525,1525,1525,1525,1529,1532,1532,1536,1539,1539,1543,1546,1546,1546,1550,1550,1550,1546,1546,1543,1539,1539,1532,1529,1529,1525,1519,1519,1515,1512,1512,1508,1505,1505,1502,1502,1498,1498,1498,1498,1498,1498,1505,1505,1505,1512,1519,1519,1522,1525,1525,1532,1536,1539,1539,1539,1543,1539,1539,1543,1543,1543,2464,2464,2464,2455,2455,2455,2455,2455,2455,2455,2455,2455,2455,2455,2455,2455,2455
1519,1515,1515,1512,1508,1508,1505,1505,1505,1505,1502,1502,1502,1502,1498,1498,1498,1498,1498,1498,1498,1498,1498,1495,1495,1495,1492,1492,1492,1495,1495,1495,1495,1492,1492,1492,1492,1492,1492,1495,1495,1495,1495,1495,1495,1498,1498,1498,1498,1495,1495,1495,1495,1495,1495,1492,1492,1492,1492,1492,1492,1492,1492,1495,1495,1495,1498,1498,1502,1505,1505,1508,1512,1512,1515,1519,1522,1522,1525,1529,1529,1529,1532,1532,1536,1536,1536,1536,1532,1532,1529,1525,1525,1522,1519,1519,1515,1515,1515,1515,1519,1519,1515,1515,1515,1515,1519,1519,1519,1519,0,0,0,0,0,0,0,0,0,0,0,0,0,0,0,0,0,0,0,0,0,0,0,0,0,0,0,0,0,0,1466,1466,1469,1469,1475,1482,1492,1492,1498,1498,1498,1502,1502,1502,1498,1498,1498,1495,1495,1495,1495,1502,1502,1498,1498,1498,1495,1495,1495,1495,1495,1495,1492,1492,1492,1492,1492,1492,1492,1492,1492,1492,1492,1492,1492,1492,1495,1495,1495,1495,1495,1498,1498,1498,1502,1502,1505,1505,1505,1512,1515,1515,1519,1522,1525,1525,1529,1529,1529,1529,1529,1529,1525,1525,1525,1525,1525,1525,1522,1522,1522,1519,1519,1519,1515,1512,1512,1508,1505,1505,1502,1502,1502,1502,1502,1502,1502,1502,1505,1505,1505,1508,1508,1508,1512,1512,1512,1515,1515,1515,1515,1515,1515,1519,1522,1522,1522,1522,1525,1525,1525,1525,1525,1525,1525,1525,1522,1522,1522,1522,1519,1519,1519,1519,1519,1519,1515,1515,1515,1515,1515,1515,1515,1515,1515,1519,1519,1519,1519,1515,1515,1515,1515,1515,1512,1508,1508,1505,1505,1505,1505,1505,1505,1505,1505,1508,1508,1508,1512,1515,1515,1519,1522,1522,1522,1525,1525,1525,1529,1529,1529,1532,1532,1532,1532,1536,1536,1536,1536,1532,1532,1532,1532,1532,1532,1536,1532,1532,1536,1532,1532,1532,1532,1532,1532,1532,1532,1532,1532,1532,1532,1536,1536,0,0,0,0,0,0,0,0,0,0,0,0,0,0,0,0,0,0,0,0,0,0,0,0,0,0,0,0,0,0,0,0,0,0,0,0,0,0,0,0,0,0,0,0,0,0,0,0,0,0,0,0,0,0,0,0,0,0,0,0,1529,1529,1525,1525,1529,1529,1525,1525,1525,1525,1525,1525,1525,1522,1522,1519,1515,1515,1515,1515,1515,1515,1515,1515,1512,1512,1515,1515,1515,1515,1519,1519,1519,1519,1519,1519,1522,1522,1525,1525,1525,1529,1529,1529,1529,1532,1532,1532,1532,1532,1532,1532,1532,1529,1529,1529,1525,1525,1525,1522,1519,1519,1519,1515,1515,1515,1512,1512,1512,1512,1512,1515,1515,1515,1515,1515,1515,1519,1519,1519,1519,1519,1519,1522,1522,1522,1522,1522,1522,1525,1529,1529,1529,1532,1532,1532,1536,1536,1536,1539,1539,1539,1539,1539,1539,1539,1539,1536,1536,1536,1536,1532,1532,1532,1532,1529,1529,1529,1529,1529,1529,1529,1532,1532,1536,1539,1539,1543,1546,1550,1550,1554,1554,1554,1550,1550,1543,1543,1543,1536,1529,1529,1525,1522,1522,1515,1512,1512,1508,1505,1505,1502,1502,1498,1498,1498,1498,1498,1498,1505,1505,1505,1512,1515,1515,1519,1522,1525,1529,1536,1536,1536,1539,1543,1539,1539,1543,1543,1543,2446,2446,2446,2446,2446,2455,2455,2455,2455,2455,2446,2446,2446,2446,2446,2446,2446
1519,1515,1515,1512,1508,1508,1505,1505,1505,1502,1502,1502,1498,1498,1498,1498,1498,1495,1495,1495,1492,1492,1492,1492,1492,1492,1492,1492,1492,1492,1492,1492,1492,1492,1492,1492,1492,1492,1492,1495,1495,1495,1495,1495,1495,1498,1498,1498,1498,1495,1495,1495,1495,1495,1495,1492,1492,1492,1492,1492,1492,1492,1492,1495,1495,1495,1498,1498,1502,1505,1505,1508,1512,1512,1515,1519,1522,1522,1525,1529,1529,1529,1532,1532,1536,1536,1536,1536,1529,1529,1529,1525,1525,1522,1519,1519,1519,1519,1519,1519,1522,1522,1519,1519,1519,1519,1522,1522,1522,1522,0,0,0,0,0,0,0,0,0,0,0,0,0,0,0,0,0,0,0,0,0,0,0,0,0,0,0,0,0,0,1466,1466,1469,1469,1475,1482,1492,1492,1498,1498,1498,1502,1502,1502,1498,1498,1498,1495,1495,1495,1495,1492,1492,1492,1488,1488,1488,1488,1488,1488,1488,1488,1488,1488,1488,1488,1488,1488,1492,1492,1492,1492,1492,1492,1492,1492,1495,1495,1495,1495,1495,1498,1498,1498,1502,1502,1505,1508,1508,1512,1515,1515,1519,1522,1525,1525,1529,1529,1529,1529,1529,1529,1525,1525,1525,1525,1525,1525,1522,1522,1522,1519,1519,1519,1512,1512,1512,1508,1505,1505,1502,1502,1502,1502,1502,1502,1502,1502,1505,1505,1505,1508,1512,1512,1512,1512,1512,1515,1515,1515,1515,1519,1522,1522,1522,1522,1522,1522,1525,1525,1525,1525,1525,1525,1525,1525,1522,1522,1522,1522,1519,1519,1515,1515,1515,1515,1512,1512,1512,1512,1512,1512,1512,1512,1512,1515,1515,1515,1515,1515,1515,1515,1515,1515,1512,1508,1508,1505,1505,1505,1505,1505,1505,1505,1505,1508,1512,1512,1515,1515,1515,1522,1522,1522,1525,1525,1525,1529,1529,1532,1532,1532,1532,1532,1536,1536,1536,1536,1536,1536,1536,1536,1536,1532,1532,1536,1532,1532,1536,1532,1532,1532,1532,1532,1532,1532,1532,1532,1532,1532,1532,1536,1536,7312,7645,7822,7822,8009,8409,8409,8625,8852,8852,0,0,0,9091,8970,8970,8970,0,0,0,8204,8204,8204,8204,0,0,0,0,0,0,0,0,0,0,0,0,0,0,0,0,0,0,0,0,0,0,0,0,0,0,0,0,0,0,0,0,0,0,0,1522,1519,1519,1519,1519,1519,1519,1519,1525,1525,1525,1525,1525,1525,1522,1522,1519,1515,1515,1515,1515,1515,1515,1515,1515,1512,1512,1515,1515,1515,1515,1519,1519,1519,1519,1519,1519,1519,1519,1519,1522,1522,1525,1525,1525,1525,1529,1529,1529,1529,1529,1529,1529,1529,1529,1529,1529,1525,1525,1525,1522,1519,1519,1519,1515,1515,1515,1512,1512,1512,1512,1512,1512,1512,1512,1515,1515,1515,1515,1515,1515,1519,1519,1519,1519,1519,1519,1522,1522,1522,1525,1525,1525,1529,1532,1532,1532,1536,1536,1536,1539,1539,1539,1539,1539,1539,1539,1539,1539,1539,1539,1536,1536,1532,1532,1532,1529,1529,1529,1529,1529,1529,1529,1532,1532,1536,1539,1539,1543,1546,1550,1550,1554,1554,1554,1550,1550,1543,1543,1543,1536,1529,1529,1525,1522,1522,1515,1512,1512,1508,1502,1502,1502,1498,1495,1495,1495,1498,1498,1498,1498,1505,1505,1508,1512,1512,1515,1522,1525,1525,1532,1536,1536,1539,1539,1539,1539,1543,1543,1543,2437,2437,2437,2437,2437,2446,2446,2446,2446,2446,2437,2437,2446,2437,2437,2446,2446
1519,1512,1512,1512,1508,1508,1505,1505,1505,1502,1502,1502,1498,1498,1498,1498,1498,1495,1495,1495,1492,1492,1492,1492,1492,1492,1492,1492,1492,1492,1492,1492,1492,1492,1492,1492,1492,1492,1492,1492,1492,1492,1492,1492,1492,1498,1495,1495,1495,1495,1495,1495,1495,1495,1495,1492,1492,1492,1492,1492,1492,1492,1492,1495,1495,1495,1498,1498,1502,1505,1505,1508,1512,1512,1512,1519,1519,1519,1525,1529,1529,1532,1536,1536,1536,1536,1536,1536,1529,1529,1525,1525,1525,1522,1519,1519,1519,1519,1519,1519,1522,1525,1522,1522,1522,1522,1522,1522,1522,1522,0,0,0,0,0,0,0,0,0,0,0,0,0,0,0,0,0,0,0,0,0,0,0,0,0,0,0,0,0,0,1456,1456,1462,1462,1472,1475,1485,1485,1492,1492,1492,1492,1495,1495,1492,1492,1488,1488,1488,1488,1488,1485,1485,1485,1482,1482,1482,1482,1482,1482,1482,1482,1482,1485,1485,1485,1485,1485,1488,1488,1492,1495,1495,1495,1495,1495,1495,1495,1495,1498,1502,1502,1502,1502,1502,1502,1505,1508,1508,1512,1519,1519,1522,1522,1529,1529,1529,1532,1529,1529,1529,1529,1525,1525,1525,1525,1525,1525,1522,1522,1522,1519,1519,1519,1512,1508,1508,1508,1505,1505,1502,1502,1502,1498,1498,1502,1502,1502,1502,1505,1505,1505,1508,1508,1508,1512,1512,1512,1512,1512,1515,1515,1519,1519,1522,1522,1522,1522,1525,1525,1525,1525,1525,1525,1525,1525,1522,1522,1522,1519,1519,1519,1515,1515,1515,1515,1512,1512,1512,1512,1512,1512,1512,1512,1512,1515,1515,1515,1515,1515,1515,1515,1515,1515,1512,1508,1508,1508,1505,1505,1505,1505,1505,1505,1505,1508,1512,1512,1515,1519,1519,1522,1525,1525,1525,1529,1529,1532,1532,1532,1532,1532,1532,1532,1536,1536,1536,1536,1536,1536,1536,1536,1536,1532,1532,1532,1532,1532,1532,1532,1532,1532,1529,1529,1529,1529,1529,1529,1529,1529,1529,1529,1529,7312,7559,7645,7645,7732,8009,8009,8204,8305,8305,8409,8625,8625,8625,8515,8515,8515,0,0,8305,8204,8204,8204,8105,8105,8105,8105,8105,8105,8305,0,0,0,0,0,0,0,0,0,0,0,0,0,0,0,0,0,0,0,0,0,0,0,0,0,0,0,0,0,1522,1519,1519,1519,1519,1519,1519,1519,1519,1519,1519,1522,1522,1519,1519,1519,1515,1515,1515,1515,1512,1512,1512,1512,1512,1512,1512,1512,1512,1512,1512,1515,1515,1515,1515,1515,1515,1515,1515,1515,1519,1519,1522,1522,1522,1522,1522,1525,1525,1525,1525,1525,1525,1525,1525,1525,1525,1522,1522,1522,1522,1519,1519,1519,1515,1515,1515,1512,1512,1512,1512,1512,1512,1512,1512,1515,1515,1515,1515,1515,1515,1519,1519,1519,1519,1519,1519,1522,1522,1522,1525,1525,1525,1529,1532,1536,1536,1536,1539,1539,1539,1539,1539,1539,1539,1539,1539,1539,1539,1536,1536,1536,1536,1532,1532,1532,1529,1529,1525,1525,1529,1529,1529,1532,1532,1536,1539,1539,1543,1546,1550,1550,1554,1554,1554,1550,1550,1546,1543,1543,1539,1532,1532,1525,1522,1522,1515,1512,1512,1508,1502,1502,1498,1495,1495,1495,1495,1495,1495,1495,1498,1502,1502,1505,1512,1512,1515,1519,1525,1525,1532,1536,1536,1539,1539,1539,1543,1543,1543,1543,2437,2437,2437,2437,2437,2446,2446,2446,2446,2446,2437,2437,2446,2437,2437,2446,2446
0,1512,1512,1508,1508,1508,1505,1502,1502,1502,1498,1498,1495,1495,1495,1495,1492,1492,1492,1492,1488,1488,1488,1488,1488,1488,1485,1485,1485,1485,1485,1488,1488,1488,1488,1488,1488,1492,1492,1492,1492,1492,1492,1492,1492,1495,1495,1495,1495,1492,1492,1492,1495,1495,1495,1492,1492,1492,1492,1492,1492,1492,1495,1495,1495,1498,1502,1502,1502,1505,1505,1508,1512,1512,1512,1519,1519,1519,1525,1529,1529,1532,1536,1536,1536,1539,1539,1536,1532,1532,1525,1525,1525,1522,1519,1519,1519,1519,1519,1519,1522,1525,1522,1522,1522,1522,1522,1522,1522,1522,0,0,0,0,0,0,0,0,0,0,0,0,0,0,0,0,0,0,0,0,0,0,0,0,0,0,0,0,0,0,1453,1453,1459,1459,1469,1475,1482,1482,1488,1488,1488,1492,1492,1492,1485,1485,1485,1482,1482,1482,1479,1479,1479,1479,1475,1475,1475,1482,1482,1482,1482,1482,1482,1485,1485,1485,1485,1485,1488,1488,1492,1495,1495,1495,1495,1495,1498,1502,1502,1502,1502,1505,1505,1505,1508,1505,1505,1508,1508,1512,1519,1519,1522,1522,1529,1529,1529,1532,1529,1529,1529,1529,1525,1525,1525,1525,1525,1525,1522,1522,1522,1519,1519,1519,1512,1508,1508,1505,1502,1502,1502,1498,1498,1498,1498,1498,1498,1502,1502,1505,1505,1505,1508,1508,1508,1512,1512,1512,1512,1512,1512,1515,1519,1519,1519,1519,1519,1519,1522,1522,1522,1522,1522,1525,1525,1525,1522,1522,1522,1519,1519,1519,1515,1515,1515,1515,1512,1512,1512,1512,1512,1512,1512,1512,1512,1515,1515,1515,1515,1515,1515,1515,1512,1512,1512,1508,1508,1508,1505,1505,1505,1505,1505,1505,1505,1508,1512,1512,1515,1519,1519,1522,1525,1525,1525,1529,1529,1532,1532,1532,1532,1532,1532,1532,1536,1536,1536,1536,1536,1536,1536,1536,1536,1536,1532,1532,1532,1529,1529,1529,1529,1529,1525,1525,1529,1529,1529,1529,1529,1529,1529,1529,1529,7234,7312,7312,7312,7393,8009,8009,8204,8305,8305,8409,8625,8625,8625,8515,8515,8515,0,0,8305,8204,8204,8204,8105,8105,8105,8105,8105,8105,8305,0,0,0,0,0,0,0,0,0,0,0,0,0,0,0,0,0,0,0,0,0,0,0,0,0,0,0,0,0,1512,1512,1512,1512,1512,1512,1512,1515,1515,1515,1515,1515,1519,1519,1515,1515,1515,1512,1512,1512,1512,1512,1512,1512,1512,1512,1512,1508,1508,1508,1508,1512,1512,1512,1512,1512,1512,1512,1512,1512,1515,1515,1519,1522,1522,1522,1522,1525,1525,1525,1525,1525,1525,1525,1525,1525,1525,1522,1522,1522,1522,1519,1519,1519,1515,1515,1515,1515,1515,1515,1515,1512,1512,1512,1512,1515,1515,1515,1515,1515,1515,1519,1519,1519,1519,1519,1519,1522,1522,1522,1522,1525,1525,1529,1532,1532,1532,1536,1536,1536,1536,1539,1539,1539,1539,1536,1536,1536,1536,1536,1536,1536,1536,1532,1532,1532,1529,1529,1525,1525,1529,1529,1529,1532,1532,1536,1539,1539,1543,1546,1550,1550,1554,1554,1554,1550,1550,1546,1543,1543,1539,1532,1532,1529,1522,1522,1519,1512,1512,1508,1502,1502,1498,1495,1495,1495,1495,1495,1495,1495,1498,1502,1502,1505,1512,1512,1515,1519,1525,1525,1529,1532,1532,1536,1539,1539,1539,1543,1543,1543,2437,2437,2437,2437,2437,2437,2437,2446,2446,2446,2437,2437,2437,2437,2437,2446,2446
0,1512,1512,1508,1505,1505,1502,1502,1502,1498,1495,1495,1495,1492,1492,1492,1488,1488,1488,1485,1485,1485,1485,1485,1485,1485,1485,1485,1485,1485,1485,1485,1485,1485,1485,1485,1488,1488,1488,1492,1492,1492,1492,1492,1495,1495,1495,1495,1495,1492,1492,1492,1495,1495,1495,1492,1492,1492,1492,1492,1495,1495,1495,1498,1498,1498,1502,1502,1505,1505,1505,1508,1512,1512,1512,1519,1519,1519,1525,1529,1529,1532,1536,1536,1536,1539,1539,1536,1532,1532,1525,1525,1525,1522,1519,1519,1519,1519,1519,1519,1522,1525,1522,1522,1522,1522,1522,1522,1522,1522,1522,0,0,0,0,0,0,0,0,0,0,0,0,0,0,0,0,0,0,0,0,0,0,0,0,0,0,0,0,0,1453,1453,1459,1459,1469,1475,1482,1482,1488,1488,1488,1492,1492,1492,1485,1485,1485,1482,1482,1482,1479,1479,1479,1479,1475,1475,1475,1475,1475,1475,1479,1479,1479,1482,1482,1482,1482,1485,1488,1488,1492,1495,1495,1495,1495,1495,1498,1502,1502,1502,1502,1505,1505,1505,1508,1508,1508,1512,1512,1519,1519,1519,1522,1525,1529,1529,1529,1529,1529,1525,1525,1525,1525,1525,1525,1522,1522,1522,1519,1519,1519,1519,1512,1512,1512,1508,1508,1505,1502,1502,1502,1498,1498,1498,1498,1498,1498,1502,1502,1505,1505,1505,1508,1508,1508,1512,1512,1512,1512,1512,1512,1515,1519,1519,1519,1519,1519,1519,1522,1522,1522,1522,1522,1522,1522,1522,1519,1519,1519,1519,1515,1515,1515,1515,1515,1512,1512,1512,1512,1512,1512,1512,1512,1512,1512,1515,1515,1515,1515,1515,1515,1515,1512,1512,1512,1508,1508,1508,1505,1505,1505,1505,1505,1508,1508,1512,1512,1512,1519,1519,1519,1525,1525,1525,1525,1529,1529,1532,1532,1532,1532,1532,1532,1532,1532,1532,1532,1532,1536,1536,1536,1536,1536,1536,1532,1532,1532,1529,1529,1529,1529,1529,1525,1525,1529,1529,1529,1529,1529,1529,1529,7157,7157,7234,7312,7312,7312,7393,7559,7559,7645,7645,7645,7822,7914,7914,8009,8009,8009,8009,8009,0,8105,8105,8204,8105,8105,8105,8105,8009,8009,8009,8305,0,0,8204,8204,0,0,0,0,0,0,0,0,0,0,0,0,0,0,0,0,0,0,0,0,0,0,0,0,0,1508,1508,1508,1508,1508,1508,1508,1508,1508,1508,1508,1512,1519,1519,1515,1515,1515,1512,1512,1512,1512,1512,1512,1512,1512,1512,1512,1508,1508,1508,1508,1512,1512,1512,1512,1512,1512,1512,1512,1512,1515,1515,1519,1519,1519,1519,1519,1522,1522,1522,1522,1522,1522,1522,1522,1522,1522,1522,1519,1519,1519,1519,1519,1519,1515,1515,1515,1515,1515,1515,1515,1515,1515,1515,1515,1515,1515,1515,1515,1515,1515,1519,1519,1519,1519,1519,1519,1522,1522,1522,1522,1525,1525,1529,1532,1532,1532,1532,1536,1536,1536,1536,1536,1536,1536,1536,1536,1536,1536,1536,1536,1536,1536,1532,1532,1532,1532,1532,1529,1529,1529,1529,1529,1532,1532,1536,1539,1539,1543,1546,1550,1550,1554,1554,1554,1550,1550,1546,1543,1543,1539,1532,1532,1529,1522,1522,1519,1512,1512,1508,1502,1498,1498,1495,1495,1495,1495,1495,1495,1495,1495,1502,1502,1505,1508,1508,1512,1519,1522,1522,1529,1532,1532,1532,1536,1536,1536,1539,1539,1543,2437,2437,2437,2437,2437,2437,2437,2437,2437,2437,2437,2437,2437,2437,2437,2446,2446
1508,1505,1505,1505,1505,1505,1498,1498,1498,1498,1495,1495,1495,1492,1492,1492,1488,1488,1488,1485,1485,1485,1485,1485,1485,1485,1485,1485,1485,1485,1485,1485,1485,1485,1485,1485,1488,1488,1488,1492,1492,1492,1492,1492,1495,1495,1495,1495,1495,1492,1492,1492,1492,1495,1495,1492,1492,1492,1492,1492,1495,1495,1495,1498,1498,1498,1502,1502,1505,1505,1505,1508,1512,1512,1512,1515,1519,1519,1525,1529,1529,1532,1536,1536,1536,1539,1539,1536,1532,1532,1529,1525,1525,1522,1519,1519,1519,1519,1519,1519,1519,1522,1519,1519,1519,1522,1522,1522,1522,1522,1522,0,0,0,0,0,0,0,0,0,0,0,0,0,0,0,0,0,0,0,0,0,0,0,0,0,0,0,0,0,1450,1450,1459,1459,1469,1475,1482,1482,1485,1488,1488,1488,1488,1485,1485,1485,1479,1479,1475,1475,1475,1475,1475,1472,1472,1472,1472,1472,1475,1475,1475,1479,1479,1482,1482,1482,1482,1485,1488,1488,1492,1495,1495,1495,1495,1495,1498,1502,1502,1502,1505,1505,1505,1508,1508,1508,1512,1512,1512,1519,1522,1522,1522,1525,1529,1529,1529,1529,1529,1525,1525,1525,1525,1525,1525,1522,1522,1522,1519,1519,1519,1519,1512,1512,1512,1508,1508,1505,1502,1502,1502,1498,1498,1498,1498,1498,1498,1502,1502,1505,1505,1505,1508,1508,1508,1512,1512,1512,1512,1512,1512,1515,1515,1515,1515,1515,1515,1515,1515,1515,1515,1519,1519,1519,1519,1515,1515,1515,1515,1515,1515,1515,1515,1515,1515,1512,1512,1512,1512,1512,1512,1512,1512,1512,1512,1512,1512,1512,1512,1512,1512,1512,1512,1512,1512,1512,1512,1508,1508,1508,1508,1508,1508,1512,1512,1512,1519,1519,1519,1522,1522,1525,1525,1525,1525,1529,1532,1532,1532,1532,1532,1532,1532,1532,1532,1532,1532,1532,1536,1536,1536,1536,1536,1536,1532,1532,1532,1529,1529,1529,1529,1529,1525,1525,1529,1529,1529,1529,1529,1529,1529,7157,7157,7234,7312,7312,7312,7393,7559,7559,7645,7645,7645,7822,7914,7914,7914,7914,8009,7914,7914,8009,8009,8009,8105,8009,8009,8009,8009,8009,8009,8009,8305,0,8105,8105,8105,8105,8105,0,0,0,0,0,0,0,0,0,0,0,0,0,0,0,0,0,0,0,0,0,0,0,1508,1508,1508,1508,1508,1508,1508,1508,1508,1508,1508,1512,1512,1512,1512,1512,1512,1512,1512,1512,1512,1512,1512,1508,1508,1508,1508,1508,1508,1508,1508,1508,1508,1508,1508,1508,1508,1512,1512,1512,1515,1515,1515,1515,1515,1515,1515,1519,1519,1519,1519,1519,1519,1519,1519,1519,1519,1519,1519,1519,1519,1519,1519,1519,1519,1519,1519,1515,1515,1515,1515,1515,1519,1519,1515,1515,1515,1515,1515,1515,1515,1519,1519,1519,1519,1519,1519,1522,1522,1522,1525,1525,1525,1529,1532,1532,1532,1532,1536,1536,1536,1536,1536,1536,1536,1536,1536,1536,1536,1536,1536,1536,1536,1532,1532,1532,1529,1529,1529,1525,1525,1525,1529,1532,1532,1536,1539,1539,1543,1546,1550,1550,1554,1554,1554,1550,1550,1546,1543,1543,1539,1532,1532,1529,1522,1522,1519,1512,1512,1508,1502,1498,1498,1495,1495,1495,1495,1495,1495,1495,1495,1502,1502,1505,1508,1508,1512,1515,1522,1522,1525,1529,1529,1532,1536,1536,1536,1539,1539,1543,2437,2437,2437,2437,2437,2437,2437,2437,2437,2437,2437,2437,2437,2437,2446,2446,2446
1508,1505,1505,1505,1505,1505,1498,1498,1498,1495,1495,1492,1492,1492,1488,1488,1488,1485,1485,1482,1482,1482,1482,1482,1482,1482,1482,1482,1482,1482,1482,1485,1485,1485,1485,1485,1488,1488,1488,1492,1492,1492,1492,1492,1495,1495,1495,1495,1495,1492,1492,1492,1492,1495,1495,1495,1495,1495,1495,1495,1495,1495,1498,1502,1502,1502,1505,1505,1505,1508,1508,1512,1512,1512,1512,1515,1519,1519,1525,1529,1529,1532,1536,1536,1536,1539,1539,1539,1536,1536,1532,1525,1525,1522,1519,1519,1519,1519,1519,1519,1519,1522,1519,1519,1519,1522,1522,1522,1522,1522,1522,0,0,0,0,0,0,0,0,0,0,0,0,0,0,0,0,0,0,0,0,0,0,0,0,0,0,0,0,0,1447,1447,1459,1459,0,1482,1482,1482,1485,1485,1485,1485,1488,1485,1482,1482,1479,1475,1475,1475,1472,1472,1472,1472,1472,1472,1472,1472,1475,1475,1475,1479,1479,1482,1482,1485,1485,1485,1488,1488,1492,1495,1495,1495,1495,1495,1498,1502,1502,1502,1505,1508,1508,1508,1508,1508,1512,1515,1515,1519,1522,1522,1522,1525,1525,1525,1525,1525,1525,1525,1525,1522,1522,1522,1519,1519,1519,1519,1515,1515,1515,1512,1512,1512,1508,1505,1505,1502,1498,1498,1498,1498,1498,1498,1502,1502,1502,1502,1505,1505,1505,1508,1512,1512,1512,1512,1512,1512,1512,1512,1512,1512,1512,1512,1512,1512,1512,1512,1512,1512,1512,1512,1512,1512,1512,1512,1512,1515,1515,1515,1515,1515,1515,1515,1515,1512,1512,1512,1512,1512,1512,1512,1512,1512,1512,1512,1512,1512,1512,1512,1512,1512,1512,1512,1512,1512,1512,1508,1508,1508,1508,1508,1508,1512,1512,1512,1519,1519,1519,1522,1522,1525,1525,1525,1525,1529,1529,1529,1529,1529,1529,1532,1532,1532,1532,1532,1532,1532,1532,1532,1536,1536,1536,1536,1536,1536,1532,1532,1532,1529,1529,1529,1525,1525,1529,1529,1529,1529,1529,1529,1529,1539,1539,7312,7393,7393,7393,7475,7645,7645,7645,7732,7732,7822,7914,7914,7914,7914,8009,7914,7914,8009,8009,8009,8105,8009,8009,8009,8009,8009,8009,8009,0,0,8105,8105,8105,8105,8105,0,0,0,0,0,0,0,0,0,0,0,0,0,0,0,0,0,0,0,0,0,0,0,1502,1502,1502,1502,1502,1502,1502,1505,1505,1505,1505,1505,1505,1505,1505,1508,1508,1508,1508,1508,1508,1508,1508,1508,1508,1508,1508,1505,1505,1505,1505,1508,1508,1508,1508,1508,1508,1508,1508,1512,1512,1512,1515,1515,1515,1515,1515,1515,1515,1519,1519,1519,1519,1519,1519,1519,1519,1519,1519,1519,1519,1519,1519,1519,1519,1519,1519,1519,1519,1519,1519,1519,1519,1519,1519,1519,1519,1515,1515,1515,1515,1519,1519,1519,1519,1519,1519,1519,1522,1522,1525,1525,1525,1529,1529,1532,1532,1532,1532,1532,1532,1536,1536,1536,1536,1536,1536,1536,1536,1536,1536,1536,1536,1532,1532,1532,1529,1529,1529,1525,1525,1525,1529,1532,1532,1536,1539,1543,1543,1543,1546,1546,1550,1554,1550,1550,1550,1546,1543,1543,1539,1532,1532,1529,1525,1525,1519,1515,1515,1508,1505,1498,1498,1498,1495,1495,1495,1495,1495,1495,1498,1502,1502,1505,1508,1508,1512,1515,1522,1522,1525,1529,1529,1532,1536,1536,1536,1539,1539,1543,2437,2437,2437,2437,2437,2437,2437,2437,2437,2437,2437,2437,2437,2437,2437,2446,2446
1508,1505,1505,1498,1498,1498,1498,1495,1495,1495,1492,1488,1488,1488,1485,1485,1485,1482,1482,1482,1482,1482,1479,1479,1479,1479,1479,1479,1479,1482,1482,1485,1485,1485,1485,1485,1488,1492,1492,1492,1492,1492,1492,1492,1495,1495,1495,1495,1495,1492,1492,1492,1495,1495,1495,1498,1498,1495,1495,1498,1502,1502,1502,1502,1502,1505,1505,1505,1505,1508,1508,1512,1512,1512,1512,1515,1519,1519,1525,1525,1525,1532,1532,1532,1536,1536,1539,1539,1532,1532,1529,1525,1525,1522,1519,1519,1519,1519,1519,1519,1519,1519,1515,1515,1519,1519,1519,1519,1522,1519,1519,0,0,0,0,0,0,0,0,0,0,0,0,0,0,0,0,0,0,0,0,0,0,0,0,0,0,0,0,0,1447,1447,1459,0,0,1482,1482,1482,1485,1485,1485,1485,1488,1485,1482,1482,1479,1475,1475,1475,1472,1472,1472,1472,1472,1472,1472,1475,1475,1475,1479,1479,1479,1482,1482,1485,1485,1485,1488,1488,1492,1495,1495,1495,1495,1495,1498,1498,1502,1502,1505,1508,1508,1508,1508,1508,1512,1515,1515,1519,1522,1522,1522,1522,1522,1522,1522,1522,1522,1519,1519,1519,1519,1519,1515,1515,1515,1512,1512,1512,1512,1512,1508,1508,1508,1502,1502,1502,1498,1498,1498,1498,1498,1498,1498,1498,1502,1502,1505,1505,1505,1508,1512,1512,1512,1512,1512,1512,1512,1512,1512,1512,1512,1512,1512,1512,1512,1512,1512,1512,1512,1512,1512,1512,1512,1512,1512,1515,1515,1515,1512,1512,1512,1512,1512,1512,1512,1512,1512,1512,1512,1512,1512,1512,1512,1512,1512,1512,1512,1512,1512,1512,1512,1512,1508,1508,1508,1508,1508,1508,1508,1508,1512,1512,1512,1515,1519,1519,1519,1522,1522,1522,1525,1525,1525,1525,1529,1529,1529,1529,1529,1529,1532,1532,1532,1532,1532,1532,1532,1532,1532,1536,1536,1536,1536,1536,1532,1532,1532,1532,1532,1532,1532,1532,1532,1532,1532,1532,1536,1536,1536,1539,1539,7393,7393,7475,7475,7475,7645,7645,7732,7732,7732,7822,7914,7914,7914,7914,7914,7914,7914,7914,7914,7914,7914,7914,8009,8009,8009,8009,8009,8009,8204,8105,8105,8105,8105,8105,8105,8204,0,0,0,0,0,0,0,0,0,0,0,0,0,0,0,0,0,0,0,0,0,0,1502,1502,1502,1502,1502,1502,1502,1502,1502,1502,1502,1505,1505,1505,1505,1505,1505,1508,1508,1508,1508,1508,1508,1508,1508,1508,1508,1505,1505,1505,1505,1508,1508,1508,1508,1508,1508,1508,1508,1512,1512,1512,1515,1515,1515,1515,1515,1515,1515,1515,1515,1515,1515,1515,1515,1515,1519,1519,1515,1515,1515,1515,1515,1515,1515,1519,1519,1519,1519,1519,1519,1519,1519,1519,1519,1519,1519,1519,1519,1519,1519,1519,1519,1519,1519,1519,1519,1519,1522,1522,1525,1525,1525,1529,1529,1532,1532,1532,1532,1532,1532,1532,1532,1532,1532,1532,1532,1532,1532,1532,1532,1532,1532,1532,1532,1532,1532,1532,1529,1529,1529,1529,1529,1532,1532,1536,1539,1543,1543,1543,1546,1546,1550,1554,1550,1550,1550,1546,1543,1543,1539,1532,1532,1529,1525,1525,1519,1515,1508,1508,1505,1498,1498,1498,1495,1495,1495,1495,1495,1495,1498,1502,1502,1505,1508,1508,1512,1515,1522,1522,1525,1529,1529,1529,1532,1532,1536,2437,2437,2437,2437,2437,2437,2437,2437,2437,2437,2446,2446,2437,2437,2437,2437,2437,2437,2446,2446
1505,1502,1502,1498,1498,1498,1495,1495,1495,1492,1492,1488,1488,1485,1485,1485,1485,1482,1482,1482,1482,1482,1479,1479,1479,1479,1479,1479,1479,1482,1482,1485,1485,1485,1485,1485,1488,1492,1492,1492,1492,1492,1492,1492,1495,1495,1495,1495,1495,1492,1492,1492,1495,1495,1495,1498,1498,1495,1495,1498,1502,1502,1502,1502,1502,1505,1505,1505,1505,1508,1508,1512,1512,1512,1512,1515,1519,1519,1522,1525,1525,1529,1532,1532,1532,1532,1536,1536,1532,1532,1529,1525,1525,1522,1519,1519,1519,1519,1519,1519,1519,1519,1515,1515,1515,1519,1515,1515,1519,1519,1519,0,0,0,0,0,0,0,0,0,0,0,0,0,0,0,0,0,0,0,0,0,0,0,0,0,0,0,0,0,1447,1447,1459,0,0,1482,1482,1482,1485,1485,1485,1485,1485,1482,1482,1482,1479,1475,1472,1472,1472,1472,1472,1472,1472,1472,1472,1475,1475,1475,1479,1479,1479,1482,1482,1485,1485,1485,1488,1488,1492,1495,1495,1495,1495,1495,1498,1498,1502,1502,1505,1508,1508,1508,1508,1508,1512,1515,1515,1515,1519,1519,1519,1519,1519,1519,1519,1522,1522,1519,1519,1519,1519,1519,1515,1515,1515,1512,1512,1512,1512,1512,1508,1508,1508,1502,1502,1502,1498,1498,1498,1498,1498,1498,1498,1498,1502,1502,1502,1505,1505,1505,1508,1508,1508,1508,1508,1508,1512,1512,1512,1508,1508,1508,1508,1508,1508,1508,1508,1508,1508,1508,1508,1508,1508,1508,1508,1508,1508,1508,1512,1512,1512,1512,1512,1512,1512,1512,1508,1508,1508,1508,1512,1512,1512,1508,1508,1508,1508,1508,1508,1508,1508,1508,1508,1508,1508,1508,1508,1508,1508,1508,1508,1515,1515,1515,1519,1519,1519,1522,1522,1522,1525,1525,1525,1525,1529,1529,1529,1529,1529,1529,1532,1532,1532,1532,1532,1532,1532,1532,1532,1536,1536,1536,1536,1536,1532,1532,1532,1532,1532,1532,1532,1532,1532,1532,1532,1532,1536,1536,1536,1539,1539,7393,7393,7475,7475,7475,7645,7645,7732,7732,7732,7732,7822,7822,7822,7822,7822,7822,7822,7822,7822,7914,7914,7822,7822,7822,7822,7822,7822,7822,8105,8105,8105,8105,8105,8105,8105,8105,0,0,0,0,0,0,0,0,0,0,0,0,0,0,0,0,0,0,0,0,0,0,1502,1502,1502,1502,1502,1502,1502,1502,1502,1502,1502,1505,1505,1505,1505,1505,1505,1508,1508,1508,1508,1508,1508,1508,1508,1508,1508,1505,1505,1505,1505,1505,1505,1505,1505,1505,1505,1508,1508,1508,1512,1512,1512,1512,1512,1512,1512,1512,1512,1515,1515,1515,1515,1515,1515,1515,1515,1515,1515,1515,1515,1515,1515,1515,1515,1519,1519,1519,1519,1519,1519,1519,1519,1519,1519,1519,1519,1519,1519,1519,1519,1519,1519,1519,1522,1522,1522,1522,1525,1525,1525,1525,1529,1529,1529,1532,1532,1532,1532,1532,1532,1532,1532,1532,1532,1532,1532,1532,1532,1532,1532,1532,1532,1532,1532,1532,1532,1532,1529,1529,1529,1529,1529,1532,1532,1532,1536,1539,1539,1543,1543,1543,1543,1546,1546,1543,1543,1539,1536,1536,1532,1529,1529,1525,1522,1519,1519,1512,1508,1508,1505,1502,1502,1498,1498,1498,1495,1495,1498,1498,1498,1502,1502,1505,1508,1508,1512,1515,1522,1522,1525,1525,1525,1529,1532,1532,1532,2437,2437,2437,2437,2437,2437,2437,2437,2446,2446,2446,2446,2446,2446,2446,2446,2446,2446,2446,2446
1505,1502,1502,1502,1498,1498,1495,1495,1495,1492,1492,1488,1488,1485,1485,1485,1482,1482,1482,1479,1479,1479,1479,1479,1479,1479,1479,1479,1479,1482,1482,1485,1485,1485,1485,1485,1488,1492,1492,1492,1492,1492,1492,1492,1495,1495,1495,1495,1492,1492,1492,1492,1495,1498,1498,1498,1498,1502,1502,1502,1502,1502,1505,1505,1505,1508,1508,1508,1508,1512,1512,1512,1512,1512,1512,1515,1519,1519,1522,1525,1525,1529,1532,1532,1532,1532,1536,1536,1532,1532,1529,1525,1525,1522,1519,1519,1519,1519,1519,1519,1519,1519,1515,1515,1515,1519,1515,1515,1519,1519,1519,0,0,0,0,0,0,0,0,0,0,0,0,0,0,0,0,0,0,0,0,0,0,0,0,0,0,0,0,0,0,0,0,0,0,1512,1512,1492,1488,1488,1485,1485,1485,1482,1482,1479,1479,1475,1472,1472,1472,1472,1472,1472,1475,1475,1475,1475,1479,1479,1479,1482,1482,1482,1485,1485,1485,1488,1488,1488,1492,1495,1495,1495,1495,1495,1498,1498,1502,1502,1505,1508,1508,1508,1508,1508,1512,1515,1515,1515,1519,1519,1519,1519,1519,1519,1519,1519,1519,1515,1515,1512,1512,1512,1512,1512,1512,1508,1508,1508,1508,1508,1508,1508,1505,1502,1502,1502,1498,1498,1498,1498,1498,1498,1498,1498,1498,1498,1502,1502,1502,1505,1505,1505,1505,1505,1505,1508,1508,1508,1508,1508,1508,1508,1508,1508,1505,1505,1505,1505,1505,1505,1505,1505,1505,1505,1505,1508,1508,1508,1508,1508,1508,1508,1512,1512,1512,1512,1508,1508,1508,1508,1512,1512,1512,1508,1508,1508,1508,1508,1508,1508,1508,1508,1508,1508,1508,1508,1508,1508,1508,1508,1508,1512,1512,1515,1515,1515,1515,1519,1519,1522,1522,1522,1522,1525,1525,1525,1525,1529,1529,1529,1529,1529,1532,1532,1532,1532,1532,1532,1532,1536,1536,1536,1536,1536,1536,1536,1536,1536,1536,1536,1536,1536,1539,1539,1539,1539,1543,1543,1543,1546,1546,7475,7559,7559,7559,7559,7645,7645,7645,7645,7645,7732,7732,7732,7732,7732,7822,7822,7822,7822,7822,0,0,7822,7822,7822,7822,7822,7822,7822,8105,8105,8105,8105,8105,8105,8105,8105,0,0,0,0,0,0,0,0,0,0,0,0,0,0,0,0,0,0,0,0,0,0,1502,1502,1502,1502,1502,1502,1502,1502,1502,1502,1502,1505,1505,1505,1505,1505,1505,1508,1508,1508,1508,1508,1508,1508,1508,1508,1508,1505,1505,1505,1505,1505,1505,1505,1505,1505,1505,1508,1508,1508,1512,1512,1512,1512,1512,1512,1512,1512,1512,1515,1515,1515,1515,1515,1515,1515,1515,1515,1515,1515,1515,1515,1515,1515,1515,1519,1519,1519,1519,1519,1519,1519,1519,1519,1519,1519,1519,1519,1519,1522,1522,1522,1522,1522,1522,1522,1522,1522,1525,1525,1525,1525,1529,1529,1529,1529,1529,1529,1529,1529,1529,1529,1529,1529,1529,1529,1529,1529,1529,1529,1529,1532,1532,1529,1529,1529,1529,1529,1529,1529,1529,1529,1529,1532,1532,1532,1536,1536,1536,1536,1536,1536,1536,1539,1539,1536,1536,1532,1529,1529,1529,1525,1525,1519,1519,1515,1515,1512,1505,1505,1505,1502,1502,1498,1498,1498,1498,1498,1498,1498,1498,1502,1502,1505,1512,1512,1512,1515,1522,1522,1525,1525,1525,1529,1532,1532,1532,2437,2437,2437,2437,2437,2437,2437,2437,2446,2446,2446,2446,2446,2446,2446,2446,2446,2446,2446,2446
