1495,1495,1495,1495,1495,1495,1495,1498,1498,1498,1498,1498,1505,1505,1505,1512,1519,1519,1529,1536,1539,1539,1539,1539,1539,1536,1536,1529,1522,1522,1515,1512,1512,1508,1508,1508,1508,1512,1515,1519,1519,1522,1522,1522,1519,1519,1515,1508,1508,1505,1505,1505,1502,1502,1498,1498,1498,1498,1498,1498,1498,1502,1502,1505,1508,1508,1512,1515,1519,1519,1522,1525,1525,1525,1525,1525,1522,1522,1519,1519,1519,1512,1512,1508,1508,1505,1502,1502,1502,1498,1498,1495,1495,1495,1495,1495,1495,1495,1492,1492,1492,1495,1495,1498,1498,1498,1502,1502,1502,1502,1502,1502,1502,1502,1502,1502,1498,1498,1498,1498,1498,1498,1498,1498,1498,1502,1502,1502,1502,1502,1505,1508,1508,1508,1508,1508,1508,1512,1512,1508,1508,1508,1508,1505,1505,1502,1498,1498,1495,1495,1492,1492,1488,1488,1488,1488,1488,1488,1488,1488,1492,1492,1495,1495,1495,1498,1498,1498,1498,1498,1502,1502,1502,1505,1505,1505,1505,1505,1508,1512,1512,1512,1515,1515,1515,1515,1515,1515,1515,1515,1515,1512,1512,1512,1508,1508,1505,1502,1498,1498,1495,1492,1492,1485,1482,1482,1482,1479,1479,1479,1475,1475,1475,1479,1482,1482,1485,1488,1492,1492,1495,1498,1498,1502,1505,1505,1508,1508,1508,1508,1508,1508,1508,1508,1508,1505,1502,1502,1502,1498,1498,1498,1495,1495,1492,1492,1492,1488,1485,1485,1485,1485,1482,1482,1479,1479,1479,1479,1479,1479,1479,1479,1482,1482,1482,1482,1482,1482,1485,1485,1485,1485,1488,1488,1488,1492,1492,1498,1498,1495,1495,1495,1495,1492,1485,1485,1482,1479,1479,1472,1472,1472,1472,1475,1482,1482,1485,1488,1492,1492,1495,1498,1498,1502,1502,1502,1505,1505,1505,1508,1508,1505,1505,1502,1502,1498,1495,1495,1488,1485,1485,1482,1475,1475,1469,1466,1466,1459,1456,1456,1453,1453,1453,1453,1453,1453,1456,1456,1459,1466,1466,1469,1475,1475,1482,1488,1488,1495,1498,1505,1505,1508,1512,1512,1512,1512,1512,1512,1512,1512,1508,1508,1508,1505,1505,1505,1502,1502,1502,1502,1498,1498,1498,1495,1495,1495,1495,1495,1495,1495,1498,1498,1498,1498,1498,1495,1495,1495,1495,1495,1495,1495,1492,1492,1485,1485,1485,1485,1485,1485,1485,1485,1485,1485,1485,1488,1488,1488,1492,1492,1492,1492,1495,1495,1498,1498,1502,1502,1502,1502,1502,1505,1508,1505,1505,1505,1505,1505,1505,1502,1502,1505,1505,1505,1505,1505,1505,1508,1508,1508,1508,1512,1512,1515,1515,1519,1519,1519,1522,1522,1522,1525,1525,1525,1525,1525,1522,1522,1522,1519,1519,1515,1515,1515,1515,1512,1512,1512,1508,1508,1508,1505,1505,1505,1505,1508,1508,1508,1508,1508,1508,1508,1508,1508,1508,1508,1508,1508,1508,1512,1508,1508,1512,1512,1512,1512,1512,1512,1512,1512,1512,1512,1512,1512,1512,1512,1512,1508,1508,1508,1508,1508,1508,1508,1508,1508,1508,1508,1508,1508,1508,1508,1508,1508,1508,1505,1505,1508,1508,1508,1512,1512,1512,1512,1512,1512,1515,1515,1515,1515,1519,1519,1519,1519,1519,1519,1522,1519,1519,1519,1519,1519,1522,1522,1522,1525,1525,1525,1525,1525,1525,0,0,2320,2320,2320,2328,2352,2352,2386,2403,2403,2420,2429,2455,2455,2482,2501,2501,2501,2501,2501,2510,2510,2510,2520,2520,2520,2520,2501,2501,2501,2492,2492,2482,2473,2473,2455,2446,2446
1495,1495,1495,1495,1495,1495,1495,1498,1498,1498,1498,1498,1505,1505,1505,1512,1519,1519,1529,1536,1539,1539,1539,1539,1539,1536,1536,1532,1525,1525,1519,1515,1515,1512,1512,1512,1512,1512,1515,1515,1515,1519,1519,1519,1515,1515,1512,1505,1505,1505,1502,1502,1502,1498,1498,1498,1498,1498,1498,1498,1498,1502,1502,1505,1508,1508,1512,1515,1519,1519,1522,1525,1525,1525,1525,1525,1522,1522,1519,1519,1519,1512,1512,1508,1508,1505,1502,1502,1502,1498,1498,1495,1495,1495,1492,1488,1488,1488,1488,1488,1488,1488,1492,1495,1495,1495,1498,1498,1498,1498,1498,1498,1498,1498,1498,1498,1495,1495,1495,1495,1495,1495,1495,1495,1498,1498,1498,1502,1502,1502,1502,1505,1508,1508,1508,1508,1508,1508,1508,1508,1505,1505,1502,1502,1502,1498,1495,1495,1492,1492,1488,1488,1485,1485,1485,1485,1485,1485,1485,1488,1492,1492,1495,1495,1495,1498,1498,1498,1498,1502,1502,1502,1502,1505,1505,1505,1505,1505,1508,1512,1512,1512,1515,1515,1515,1515,1515,1515,1515,1515,1515,1512,1512,1512,1508,1508,1505,1502,1498,1498,1495,1492,1492,1485,1482,1482,1482,1479,1479,1479,1475,1475,1475,1479,1479,1482,1485,1488,1492,1492,1495,1495,1495,1502,1502,1502,1505,1505,1505,1505,1505,1505,1502,1502,1502,1502,1498,1498,1498,1495,1495,1495,1492,1492,1492,1488,1488,1488,1485,1485,1485,1485,1482,1482,1482,1479,1479,1479,1479,1479,1479,1482,1482,1482,1482,1482,1482,1482,1485,1485,1485,1485,1488,1488,1488,1492,1492,1498,1498,1495,1495,1488,1488,1485,1482,1482,1475,1472,1472,1469,1469,1469,1469,1472,1475,1475,1485,1485,1492,1492,1495,1495,1495,1502,1502,1502,1505,1505,1505,1508,1508,1508,1505,1505,1505,1502,1495,1495,1492,1485,1485,1479,1475,1475,1469,1462,1462,1456,1453,1453,1450,1450,1450,1450,1450,1450,1453,1453,1456,1459,1459,1466,1472,1472,1479,1485,1488,1492,1498,1505,1505,1508,1512,1512,1512,1512,1512,1512,1512,1512,1508,1508,1508,1505,1505,1505,1502,1502,1502,1502,1498,1498,1498,1495,1495,1495,1495,1495,1495,1495,1495,1498,1498,1495,1495,1495,1495,1495,1495,1495,1495,1492,1488,1488,1485,1485,1485,1485,1485,1485,1485,1485,1485,1485,1485,1485,1485,1485,1488,1488,1488,1492,1492,1495,1495,1495,1498,1498,1498,1502,1502,1502,1505,1502,1502,1502,1502,1502,1502,1502,1502,1502,1502,1502,1502,1502,1502,1505,1505,1505,1505,1508,1508,1512,1515,1519,1519,1519,1522,1522,1522,1525,1525,1525,1525,1525,1522,1522,1522,1519,1519,1515,1515,1515,1515,1512,1512,1512,1508,1508,1508,1505,1505,1505,1505,1505,1505,1505,1505,1505,1505,1505,1505,1505,1505,1508,1508,1508,1508,1508,1508,1508,1508,1508,1508,1512,1512,1512,1512,1512,1512,1512,1512,1512,1508,1508,1508,1508,1508,1505,1505,1505,1505,1505,1505,1505,1505,1505,1505,1505,1505,1505,1505,1505,1505,1505,1505,1505,1505,1508,1508,1508,1512,1512,1512,1512,1515,1515,1515,1519,1519,1519,1519,1519,1519,1519,1522,1522,1519,1519,1519,1519,1522,1522,1522,1525,1525,1525,1525,1525,1525,0,0,0,0,2328,2328,2352,2352,2369,2386,2386,2403,2420,2446,2446,2473,2501,2501,2501,2501,2501,2510,2510,2510,2520,2520,2520,2520,2501,2501,2501,2492,2492,2482,2473,2473,2464,2455,2455
1495,1495,1495,1495,1495,1495,1495,1498,1498,1498,1502,1502,1505,1508,1508,1515,1522,1522,1529,1536,1539,1539,1543,1543,1543,1539,1539,1532,1525,1525,1519,1515,1515,1512,1512,1512,1512,1512,1515,1515,1515,1519,1519,1519,1515,1515,1512,1505,1505,1505,1502,1502,1502,1498,1498,1498,1498,1498,1498,1498,1498,1502,1502,1505,1508,1508,1512,1512,1519,1519,1522,1522,1522,1525,1525,1522,1522,1522,1519,1515,1515,1512,1508,1508,1508,1502,1502,1502,1498,1495,1495,1492,1488,1488,1488,1488,1488,1485,1485,1485,1485,1488,1488,1492,1492,1495,1495,1495,1495,1498,1498,1498,1498,1498,1495,1495,1495,1495,1495,1495,1495,1495,1495,1495,1495,1498,1498,1498,1502,1502,1502,1505,1508,1508,1508,1508,1508,1508,1508,1508,1505,1505,1502,1502,1502,1498,1495,1495,1492,1492,1488,1488,1485,1485,1485,1485,1485,1485,1485,1488,1488,1488,1492,1495,1495,1498,1498,1498,1498,1498,1502,1502,1502,1502,1502,1505,1505,1505,1508,1512,1512,1512,1515,1515,1515,1515,1515,1515,1515,1515,1515,1515,1515,1512,1512,1508,1508,1505,1502,1502,1498,1492,1492,1488,1485,1485,1482,1479,1479,1479,1479,1479,1479,1479,1479,1482,1482,1485,1492,1492,1492,1495,1495,1498,1502,1502,1505,1505,1505,1505,1505,1505,1502,1502,1502,1502,1498,1498,1498,1495,1495,1495,1492,1492,1492,1488,1488,1488,1485,1485,1485,1485,1482,1482,1482,1479,1479,1479,1479,1479,1479,1482,1482,1482,1482,1482,1482,1482,1485,1485,1485,1485,1485,1485,1488,1492,1492,1495,1495,1495,1492,1485,1485,1482,1475,1475,1472,1466,1466,1466,1466,1466,1466,1469,1472,1472,1479,1485,1492,1492,1492,1495,1495,1502,1502,1502,1505,1505,1505,1508,1508,1508,1508,1505,1505,1502,1498,1498,1492,1485,1485,1479,1475,1475,1469,1462,1462,1456,1453,1453,1450,1450,1450,1450,1450,1450,1453,1453,1456,1459,1459,1466,1472,1472,1479,1485,1492,1492,1498,1502,1502,1505,1505,1505,1508,1508,1505,1505,1505,1505,1505,1505,1505,1502,1502,1502,1502,1498,1498,1498,1498,1498,1498,1495,1495,1495,1495,1495,1495,1495,1495,1498,1495,1495,1495,1495,1492,1492,1492,1492,1492,1488,1488,1488,1485,1482,1482,1485,1482,1482,1482,1482,1482,1482,1482,1485,1485,1485,1485,1485,1485,1488,1492,1495,1495,1495,1498,1498,1498,1502,1502,1502,1505,1502,1502,1502,1502,1502,1502,1502,1502,1502,1502,1502,1502,1502,1502,1505,1505,1505,1505,1508,1508,1512,1515,1515,1515,1515,1519,1519,1519,1522,1522,1522,1522,1522,1519,1519,1519,1519,1519,1515,1515,1512,1512,1512,1508,1508,1508,1508,1508,1505,1505,1505,1505,1505,1505,1502,1502,1502,1502,1502,1505,1505,1505,1505,1505,1505,1505,1505,1505,1508,1508,1508,1508,1508,1508,1508,1508,1508,1508,1508,1508,1508,1505,1505,1505,1505,1505,1505,1505,1505,1505,1505,1505,1505,1505,1505,1505,1505,1505,1505,1505,1505,1505,1505,1505,1505,1505,1508,1508,1508,1512,1512,1512,1512,1515,1515,1515,1515,1519,1519,1519,1519,1519,1519,1519,1519,1519,1519,1519,1519,1522,1522,1522,1525,1525,1525,1525,1525,1525,0,2265,2265,2312,2312,2328,2352,2352,2369,2386,2386,2394,2420,2437,2437,2464,2492,2492,2501,2501,2501,2510,2520,2520,2520,2520,2520,2510,2501,2501,2501,2492,2492,2492,2473,2473,2473,2464,2464
1495,1495,1495,1495,1495,1495,1495,1498,1498,1498,1502,1502,1508,1512,1512,1515,1525,1532,1532,1536,1543,1543,1543,1543,1543,1539,1539,1532,1525,1525,1519,1515,1515,1512,1512,1512,1512,1512,1512,1515,1515,1515,1515,1515,1512,1512,1505,1505,1505,1502,1498,1498,1498,1498,1495,1495,1495,1495,1495,1495,1498,1502,1502,1505,1508,1508,1512,1512,1515,1515,1522,1522,1522,1522,1522,1522,1519,1519,1515,1512,1512,1508,1508,1505,1505,1502,1498,1498,1495,1495,1495,1488,1488,1488,1485,1485,1485,1485,1485,1485,1485,1488,1488,1492,1492,1495,1495,1495,1495,1498,1498,1498,1498,1498,1495,1495,1495,1495,1495,1495,1495,1495,1495,1495,1495,1498,1498,1498,1502,1502,1502,1502,1505,1505,1505,1505,1505,1505,1505,1505,1502,1502,1502,1498,1498,1495,1492,1492,1488,1488,1485,1485,1485,1482,1482,1482,1482,1485,1485,1485,1488,1488,1492,1495,1495,1495,1498,1498,1498,1498,1502,1502,1502,1502,1502,1505,1505,1505,1508,1512,1512,1512,1515,1515,1515,1515,1515,1515,1515,1515,1515,1515,1515,1515,1512,1512,1512,1508,1505,1505,1498,1495,1495,1492,1485,1485,1482,1482,1482,1479,1479,1479,1479,1479,1479,1482,1482,1485,1492,1492,1492,1495,1495,1498,1502,1502,1502,1502,1502,1502,1502,1502,1498,1498,1498,1498,1495,1495,1495,1492,1492,1492,1492,1492,1488,1488,1485,1485,1485,1485,1485,1482,1482,1482,1482,1479,1479,1479,1479,1479,1479,1482,1482,1482,1482,1482,1482,1482,1482,1482,1482,1482,1485,1485,1488,1488,1488,1492,1492,1492,1488,1482,1482,1475,1472,1472,1466,1466,1466,1466,1466,1466,1466,1469,1472,1472,1479,1485,1492,1492,1492,1495,1495,1502,1502,1502,1505,1508,1508,1508,1508,1508,1508,1505,1505,1502,1498,1498,1492,1485,1485,1475,1472,1472,1466,1459,1459,1453,1450,1450,1447,1444,1444,1444,1444,1447,1447,1447,1450,1456,1456,1462,1469,1469,1475,1482,1488,1488,1492,1498,1498,1498,1502,1502,1502,1502,1502,1502,1502,1498,1498,1498,1498,1498,1498,1498,1498,1498,1498,1498,1498,1498,1495,1495,1495,1495,1495,1495,1492,1492,1495,1495,1495,1495,1495,1495,1492,1492,1492,1492,1492,1488,1488,1488,1485,1482,1482,1485,1482,1482,1482,1482,1482,1482,1482,1485,1485,1485,1485,1485,1485,1488,1492,1492,1492,1495,1495,1495,1495,1498,1498,1498,1502,1502,1498,1498,1498,1498,1498,1498,1498,1498,1498,1498,1498,1502,1502,1502,1502,1502,1505,1505,1505,1508,1508,1512,1512,1512,1515,1515,1515,1519,1519,1519,1519,1519,1519,1519,1515,1515,1515,1515,1512,1512,1512,1508,1508,1508,1508,1505,1505,1505,1502,1502,1502,1502,1502,1502,1502,1502,1502,1502,1505,1505,1505,1505,1505,1505,1505,1505,1505,1508,1508,1508,1508,1508,1508,1508,1508,1508,1508,1508,1508,1508,1505,1505,1505,1505,1505,1502,1502,1502,1502,1502,1502,1502,1502,1498,1498,1498,1498,1502,1502,1502,1502,1502,1502,1502,1502,1505,1508,1508,1512,1512,1512,1512,1512,1515,1515,1515,1515,1515,1515,1515,1515,1515,1515,1515,1515,1515,1515,1515,1519,1522,1522,1525,1525,1525,1525,1525,1525,0,2265,2265,2312,2312,2328,2344,2344,2360,2369,2369,2386,2403,2437,2437,2464,2492,2492,2501,2501,2501,2510,2520,2520,2520,2520,2520,2510,2501,2501,2501,2492,2492,2492,2482,2482,2473,2464,2464
1495,1495,1495,1495,1495,1495,1495,1498,1498,1498,1502,1502,1508,1512,1512,1515,1525,1532,1532,1536,1543,1543,1543,1543,1543,1539,1539,1532,1525,1525,1519,1515,1515,1512,1512,1512,1512,1508,1508,1508,1508,1512,1512,1508,1508,1508,1505,1502,1502,1502,1498,1495,1495,1495,1495,1495,1495,1495,1495,1495,1498,1502,1502,1502,1505,1505,1508,1512,1515,1515,1522,1522,1522,1522,1522,1522,1519,1519,1515,1512,1512,1508,1508,1505,1505,1502,1498,1498,1495,1495,1495,1488,1488,1488,1485,1485,1485,1485,1485,1485,1485,1485,1488,1488,1488,1488,1492,1492,1495,1495,1495,1495,1495,1495,1495,1492,1492,1492,1492,1492,1492,1495,1495,1495,1495,1498,1498,1498,1498,1498,1502,1502,1502,1502,1505,1505,1505,1505,1505,1502,1502,1502,1498,1495,1495,1495,1492,1488,1488,1485,1482,1482,1479,1479,1479,1479,1479,1482,1482,1485,1488,1488,1492,1495,1495,1495,1498,1498,1498,1498,1502,1502,1502,1502,1502,1505,1505,1505,1508,1512,1512,1512,1515,1515,1515,1515,1515,1515,1515,1515,1515,1515,1515,1515,1512,1512,1512,1508,1505,1505,1498,1495,1495,1492,1485,1485,1482,1482,1482,1479,1475,1475,1475,1475,1479,1482,1482,1482,1488,1488,1492,1492,1492,1495,1498,1498,1498,1498,1498,1498,1498,1498,1498,1495,1495,1492,1492,1492,1492,1492,1492,1488,1488,1488,1485,1485,1485,1485,1482,1482,1482,1482,1482,1482,1479,1479,1479,1479,1479,1479,1479,1482,1482,1482,1482,1482,1482,1482,1482,1482,1482,1482,1485,1485,1488,1488,1488,1492,1492,1492,1488,1482,1482,1475,1472,1472,1466,1462,1462,1459,1459,1459,1459,1466,1469,1469,1479,1482,1488,1488,1492,1495,1495,1502,1502,1502,1505,1508,1508,1508,1508,1508,1508,1505,1505,1502,1498,1498,1492,1482,1482,1475,1469,1469,1462,1456,1456,1450,1444,1444,1441,1441,1441,1441,1441,1441,1444,1444,1447,1450,1450,1459,1466,1466,1472,1479,1485,1485,1488,1492,1492,1495,1498,1498,1502,1502,1502,1502,1502,1498,1498,1498,1498,1498,1498,1498,1498,1498,1498,1498,1498,1498,1495,1495,1495,1495,1495,1495,1492,1492,1495,1495,1495,1495,1495,1492,1492,1492,1492,1488,1488,1488,1485,1485,1482,1482,1482,1482,1482,1482,1482,1482,1482,1482,1482,1482,1485,1485,1485,1485,1485,1485,1492,1492,1492,1492,1495,1495,1495,1495,1495,1495,1498,1498,1495,1495,1495,1495,1495,1495,1495,1495,1495,1495,1498,1498,1498,1498,1498,1498,1502,1502,1502,1505,1505,1508,1508,1508,1512,1512,1515,1519,1519,1519,1519,1519,1519,1519,1515,1515,1515,1515,1512,1512,1512,1508,1508,1508,1508,1505,1505,1505,1502,1502,1502,1502,1502,1502,1502,1502,1502,1502,1502,1502,1502,1502,1502,1502,1502,1502,1502,1505,1505,1505,1505,1508,1508,1508,1505,1505,1505,1505,1505,1505,1502,1502,1502,1502,1502,1498,1498,1498,1495,1495,1495,1495,1495,1495,1495,1495,1495,1498,1498,1498,1498,1498,1498,1502,1502,1505,1508,1508,1508,1508,1508,1508,1508,1512,1512,1512,1512,1512,1512,1512,1512,1515,1515,1515,1515,1515,1515,1515,1519,1522,1522,1525,1525,1525,1525,1525,1525,0,2265,2265,2312,2312,2328,2344,2344,2360,2369,2369,2386,2403,2420,2420,2446,2473,2473,2492,2501,2501,2501,2510,2520,2520,2510,2510,2510,2501,2501,2492,2492,2492,2492,2482,2482,2473,2464,2464
1495,1495,1495,1495,1495,1498,1498,1502,1502,1502,1508,1508,1508,1515,1515,1522,1525,1532,1532,1536,1543,1543,1543,1543,1543,1539,1539,1532,1529,1529,1522,1519,1519,1512,1512,1508,1508,1508,1508,1508,1508,1512,1512,1508,1508,1508,1505,1502,1502,1502,1498,1495,1495,1495,1495,1495,1495,1495,1495,1495,1498,1502,1502,1502,1505,1505,1508,1512,1515,1515,1519,1519,1519,1519,1519,1519,1515,1515,1512,1508,1508,1508,1505,1502,1502,1502,1498,1498,1495,1492,1492,1488,1488,1488,1485,1485,1485,1485,1485,1485,1485,1485,1485,1488,1488,1488,1488,1488,1492,1492,1492,1495,1495,1495,1492,1492,1492,1492,1492,1492,1492,1492,1495,1495,1495,1495,1495,1498,1498,1498,1498,1502,1502,1502,1505,1505,1505,1505,1505,1502,1502,1502,1498,1495,1495,1495,1492,1488,1488,1485,1482,1482,1479,1479,1479,1479,1479,1482,1482,1485,1488,1488,1492,1495,1495,1495,1498,1498,1498,1498,1498,1498,1502,1502,1502,1505,1505,1505,1505,1508,1512,1512,1512,1515,1515,1515,1515,1515,1515,1515,1515,1515,1515,1515,1512,1512,1512,1508,1505,1505,1502,1498,1498,1492,1488,1488,1482,1482,1482,1479,1475,1475,1475,1475,1475,1479,1479,1482,1485,1485,1488,1492,1492,1495,1495,1495,1498,1498,1498,1498,1498,1498,1498,1495,1495,1492,1492,1492,1492,1492,1492,1488,1488,1488,1485,1485,1485,1485,1482,1482,1482,1482,1482,1482,1479,1479,1479,1479,1479,1479,1479,1482,1482,1482,1482,1479,1479,1479,1482,1482,1482,1482,1485,1485,1485,1488,1488,1492,1488,1488,1485,1482,1482,1472,1469,1469,1462,1459,1459,1459,1459,1459,1459,1459,1469,1469,1475,1482,1488,1488,1492,1498,1498,1502,1505,1505,1505,1508,1508,1508,1508,1508,1508,1505,1505,1498,1495,1495,1488,1482,1482,1472,1466,1466,1462,1456,1456,1450,1444,1444,1441,1441,1441,1441,1441,1441,1444,1444,1447,1450,1450,1459,1466,1466,1472,1479,1485,1485,1488,1492,1492,1495,1498,1495,1495,1495,1495,1495,1495,1495,1495,1495,1495,1495,1495,1495,1495,1495,1495,1495,1495,1495,1495,1495,1495,1495,1492,1492,1492,1492,1495,1495,1495,1492,1492,1492,1492,1492,1488,1488,1488,1488,1485,1485,1482,1482,1482,1482,1482,1482,1482,1482,1482,1482,1482,1482,1482,1482,1485,1485,1485,1485,1488,1488,1488,1488,1492,1492,1492,1495,1495,1495,1498,1498,1495,1495,1495,1495,1495,1495,1495,1495,1495,1495,1498,1498,1498,1498,1498,1498,1502,1502,1502,1505,1505,1508,1508,1508,1512,1512,1512,1515,1515,1515,1515,1515,1515,1515,1515,1512,1512,1512,1508,1508,1508,1508,1508,1508,1508,1505,1505,1502,1502,1502,1502,1502,1502,1502,1502,1502,1502,1502,1502,1502,1502,1502,1502,1502,1502,1502,1502,1502,1502,1502,1502,1505,1505,1505,1505,1505,1502,1502,1502,1502,1498,1498,1495,1495,1495,1495,1495,1495,1492,1492,1492,1495,1495,1495,1495,1495,1495,1498,1498,1498,1498,1498,1498,1502,1502,1505,1508,1508,1508,1508,1508,1508,1508,1512,1512,1512,1512,1512,1512,1512,1512,1512,1512,1515,1515,1515,1515,1515,1519,1522,1522,1522,1522,1522,1525,1525,1525,1529,2265,2265,2296,2296,2304,2328,2328,2336,2352,2352,2360,2377,2394,2394,2429,2455,2455,2473,2482,2482,2492,2501,2510,2510,2510,2510,2501,2492,2492,2492,2482,2482,2482,2473,2473,2473,2464,2464
1495,1495,1495,1498,1498,1498,1502,1502,1502,1505,1508,1508,1515,1519,1519,1522,1529,1532,1532,1536,1543,1543,1543,1543,1543,1539,1539,1532,1529,1529,1522,1519,1519,1515,1512,1508,1508,1508,1508,1508,1508,1508,1508,1508,1505,1505,1502,1502,1502,1498,1495,1495,1495,1495,1495,1495,1495,1495,1495,1495,1498,1502,1502,1502,1505,1505,1508,1512,1512,1512,1515,1515,1515,1515,1515,1515,1512,1512,1508,1508,1508,1502,1502,1502,1502,1498,1495,1495,1495,1492,1492,1488,1488,1488,1485,1485,1485,1485,1485,1485,1485,1485,1485,1488,1488,1488,1488,1488,1492,1492,1492,1495,1495,1495,1492,1492,1492,1492,1492,1492,1492,1492,1495,1495,1495,1495,1495,1498,1498,1498,1498,1502,1502,1502,1502,1502,1502,1502,1502,1502,1502,1502,1498,1495,1495,1495,1488,1485,1485,1485,1482,1482,1479,1479,1479,1479,1479,1479,1479,1482,1485,1485,1492,1495,1495,1495,1498,1498,1498,1498,1498,1498,1498,1502,1502,1505,1505,1505,1505,1508,1508,1508,1512,1512,1512,1512,1515,1515,1515,1515,1515,1515,1512,1512,1512,1512,1512,1512,1505,1505,1505,1498,1498,1492,1488,1488,1485,1482,1482,1479,1475,1475,1475,1475,1475,1479,1479,1482,1485,1485,1488,1492,1492,1495,1495,1495,1498,1498,1498,1498,1495,1495,1495,1492,1492,1492,1488,1488,1488,1485,1485,1485,1485,1485,1485,1482,1482,1482,1482,1482,1482,1482,1479,1479,1479,1479,1479,1479,1479,1479,1479,1482,1482,1482,1482,1479,1479,1479,1482,1482,1482,1482,1485,1485,1485,1488,1488,1488,1488,1488,1485,1479,1479,1472,1466,1466,1462,1459,1459,1456,1456,1459,1459,1459,1469,1469,1475,1482,1488,1488,1492,1498,1498,1502,1505,1505,1505,1508,1508,1508,1508,1508,1508,1505,1505,1498,1495,1495,1488,1482,1482,1472,1466,1466,1459,1453,1453,1444,1441,1441,1437,1434,1434,1434,1434,1437,1437,1437,1441,1447,1447,1453,1459,1459,1469,1475,1482,1482,1485,1492,1492,1492,1495,1492,1492,1492,1492,1492,1492,1492,1492,1492,1492,1492,1492,1492,1492,1492,1492,1492,1495,1495,1495,1495,1495,1495,1492,1492,1492,1492,1495,1495,1495,1492,1492,1492,1488,1488,1488,1488,1488,1488,1485,1485,1482,1482,1482,1482,1482,1482,1482,1482,1482,1482,1482,1482,1482,1482,1485,1485,1485,1485,1488,1488,1488,1488,1492,1492,1492,1492,1492,1495,1495,1495,1492,1492,1492,1492,1492,1492,1492,1492,1492,1492,1492,1495,1495,1495,1498,1498,1498,1498,1498,1502,1502,1505,1505,1505,1508,1508,1508,1508,1508,1508,1508,1508,1508,1512,1508,1508,1508,1508,1508,1508,1508,1508,1508,1508,1508,1505,1505,1502,1502,1502,1502,1502,1502,1498,1498,1498,1498,1498,1498,1498,1498,1502,1502,1502,1502,1502,1502,1502,1502,1502,1502,1505,1505,1505,1505,1505,1502,1502,1502,1502,1498,1498,1495,1495,1495,1495,1495,1495,1492,1492,1492,1492,1488,1488,1488,1488,1492,1495,1495,1495,1495,1495,1498,1502,1502,1502,1505,1508,1508,1508,1508,1508,1508,1508,1508,1512,1512,1512,1512,1512,1512,1512,1512,1512,1512,1515,1515,1515,1519,1519,1519,1522,1522,1522,1525,1525,1525,1525,2280,2280,2280,2280,2288,2304,2304,2312,2312,2312,2336,2352,2377,2377,2394,2420,2420,2446,2482,2482,2492,2501,2510,2510,2510,2510,2501,2492,2492,2492,2482,2482,2482,2473,2473,2473,2464,2464
1495,1495,1495,1498,1502,1502,1502,1502,1502,1505,1508,1508,1515,1519,1519,1522,1529,1532,1532,1536,1539,1539,1543,1543,1539,1536,1536,1532,1525,1525,1522,1519,1515,1515,1508,1508,1508,1505,1505,1505,1505,1505,1505,1502,1502,1502,1502,1502,1502,1498,1495,1495,1495,1495,1495,1495,1495,1495,1495,1495,1498,1502,1502,1502,1505,1508,1508,1508,1512,1512,1512,1512,1512,1512,1515,1515,1512,1512,1508,1508,1508,1502,1502,1502,1502,1498,1495,1495,1495,1492,1492,1488,1488,1488,1485,1485,1485,1485,1485,1485,1485,1485,1485,1488,1488,1488,1488,1488,1488,1492,1492,1492,1492,1492,1488,1488,1492,1492,1492,1492,1492,1492,1492,1492,1492,1495,1495,1495,1495,1495,1498,1498,1498,1498,1502,1502,1502,1502,1502,1498,1498,1498,1495,1495,1495,1492,1488,1485,1485,1482,1479,1479,1479,1475,1475,1475,1479,1479,1479,1482,1485,1485,1488,1495,1495,1495,1498,1498,1498,1498,1498,1498,1498,1502,1502,1505,1505,1505,1505,1508,1508,1508,1512,1512,1512,1512,1515,1515,1515,1515,1515,1515,1512,1512,1512,1512,1512,1512,1505,1505,1505,1498,1498,1492,1488,1488,1485,1482,1482,1479,1475,1475,1475,1475,1475,1479,1479,1479,1482,1482,1485,1488,1488,1492,1495,1495,1495,1495,1495,1495,1495,1495,1492,1488,1488,1488,1485,1485,1485,1485,1485,1485,1485,1485,1482,1482,1482,1482,1479,1479,1479,1479,1479,1479,1479,1479,1479,1479,1479,1479,1479,1482,1482,1482,1482,1482,1482,1482,1482,1482,1482,1482,1485,1485,1485,1488,1488,1488,1488,1488,1485,1479,1479,1472,1466,1466,1462,1459,1459,1456,1456,1459,1459,1459,1466,1466,1475,1482,1488,1488,1492,1495,1495,1498,1505,1505,1505,1505,1505,1505,1505,1505,1505,1502,1502,1498,1492,1492,1485,1479,1479,1472,1466,1466,1456,1450,1450,1444,1437,1437,1434,1431,1431,1431,1431,1434,1434,1434,1437,1441,1441,1450,1456,1456,1466,1472,1475,1475,1482,1488,1488,1492,1492,1492,1492,1492,1488,1488,1488,1492,1492,1492,1492,1492,1492,1492,1492,1492,1492,1492,1495,1495,1495,1495,1495,1495,1492,1492,1492,1492,1495,1495,1495,1492,1492,1492,1488,1488,1488,1488,1488,1488,1485,1485,1482,1482,1482,1482,1479,1479,1482,1482,1482,1482,1479,1479,1482,1482,1482,1482,1482,1485,1485,1488,1488,1488,1488,1488,1488,1488,1488,1492,1492,1492,1488,1488,1488,1488,1488,1488,1488,1488,1492,1492,1492,1492,1492,1492,1492,1492,1495,1498,1498,1498,1498,1502,1502,1502,1505,1505,1505,1508,1508,1508,1508,1508,1508,1512,1508,1508,1508,1508,1508,1508,1508,1508,1508,1508,1508,1505,1505,1502,1502,1502,1502,1502,1502,1498,1498,1498,1498,1498,1498,1498,1498,1498,1498,1498,1498,1498,1498,1498,1498,1498,1498,1498,1498,1498,1498,1498,1498,1498,1498,1495,1495,1495,1492,1492,1492,1488,1488,1488,1488,1488,1488,1488,1488,1485,1485,1485,1488,1492,1492,1495,1495,1495,1495,1502,1502,1502,1505,1508,1508,1505,1505,1505,1508,1508,1508,1508,1508,1508,1508,1508,1508,1508,1508,1512,1512,1512,1515,1515,1519,1519,1519,1522,1522,1522,1525,1525,1525,1525,0,2280,2280,2280,2288,2304,2304,2312,2312,2312,2336,2352,2377,2377,2394,2420,2420,2446,2464,2464,2482,2482,2492,2492,2492,2492,2492,2482,2482,2482,2473,2473,2473,2464,2464,2464,2464,2464
1495,1495,1495,1498,1502,1502,1502,1505,1505,1508,1512,1512,1515,1519,1519,1525,1529,1532,1532,1532,1536,1536,1539,1539,1536,1536,1536,1529,1522,1522,1519,1515,1512,1512,1505,1505,1505,1502,1502,1502,1502,1502,1502,1502,1502,1502,1502,1502,1502,1498,1495,1495,1495,1495,1495,1495,1495,1498,1498,1498,1498,1502,1502,1505,1505,1508,1508,1508,1512,1512,1512,1512,1512,1512,1512,1512,1508,1508,1505,1502,1502,1502,1498,1495,1495,1495,1495,1495,1492,1488,1488,1488,1485,1485,1485,1485,1485,1482,1482,1482,1482,1482,1485,1485,1485,1488,1488,1488,1488,1488,1488,1488,1488,1488,1488,1488,1488,1488,1488,1492,1492,1492,1492,1492,1492,1492,1492,1495,1495,1495,1495,1498,1498,1498,1498,1498,1498,1498,1498,1498,1498,1498,1495,1495,1495,1492,1488,1485,1485,1482,1479,1479,1479,1475,1475,1475,1479,1479,1479,1482,1485,1485,1488,1495,1495,1495,1498,1498,1498,1498,1498,1498,1498,1502,1502,1502,1505,1505,1505,1508,1508,1508,1508,1508,1508,1508,1508,1508,1508,1508,1508,1508,1508,1508,1508,1508,1508,1508,1505,1505,1502,1498,1498,1492,1488,1488,1485,1482,1482,1479,1475,1475,1472,1472,1472,1475,1475,1479,1482,1482,1482,1485,1485,1488,1492,1492,1492,1495,1495,1495,1492,1492,1488,1488,1488,1488,1485,1485,1485,1485,1485,1485,1485,1485,1482,1482,1482,1482,1479,1479,1479,1479,1479,1479,1479,1479,1479,1479,1479,1482,1482,1482,1482,1482,1482,1482,1482,1482,1482,1482,1482,1482,1482,1482,1485,1485,1485,1488,1488,1488,1482,1475,1475,1469,1462,1462,1459,1456,1456,1456,1456,1456,1456,1459,1466,1466,1472,1482,1488,1488,1492,1495,1495,1498,1502,1502,1505,1505,1505,1505,1505,1505,1502,1498,1498,1495,1492,1492,1482,1479,1479,1469,1462,1462,1453,1447,1447,1441,1434,1434,1434,1431,1431,1431,1431,1434,1434,1434,1437,1441,1441,1450,1456,1456,1466,1472,1475,1475,1482,1488,1488,1492,1492,1492,1492,1492,1488,1488,1488,1488,1488,1492,1492,1488,1488,1492,1492,1492,1492,1492,1495,1495,1495,1495,1495,1495,1492,1492,1492,1492,1495,1495,1495,1492,1492,1492,1488,1488,1488,1488,1488,1485,1485,1485,1482,1482,1479,1479,1479,1479,1479,1479,1479,1479,1479,1479,1479,1479,1479,1482,1482,1482,1485,1485,1485,1485,1488,1488,1488,1488,1488,1488,1488,1488,1488,1488,1488,1488,1488,1488,1488,1488,1492,1492,1492,1492,1492,1492,1492,1492,1495,1498,1498,1498,1498,1502,1502,1502,1505,1505,1505,1508,1508,1508,1508,1508,1508,1508,1508,1508,1508,1508,1508,1508,1508,1508,1508,1508,1505,1505,1505,1502,1502,1502,1502,1498,1498,1498,1498,1495,1495,1495,1495,1495,1495,1495,1495,1495,1495,1495,1495,1495,1495,1495,1498,1498,1498,1495,1495,1495,1495,1495,1495,1492,1488,1488,1488,1488,1488,1485,1485,1485,1485,1485,1485,1485,1482,1482,1482,1482,1488,1492,1492,1495,1495,1495,1495,1502,1502,1502,1505,1508,1508,1505,1505,1505,1508,1508,1508,1508,1508,1508,1508,1508,1508,1508,1508,1512,1512,1512,1512,1512,1515,1519,1519,1522,1522,1522,1522,1522,1522,1525,0,2280,2280,2250,2250,2280,2280,2288,2296,2296,2312,2328,2352,2352,2369,2394,2394,2420,2446,2446,2464,2473,2482,2482,2482,2482,2482,2473,2473,2473,2464,2464,2455,2455,2455,2446,2446,2446
1495,1495,1495,1498,1502,1502,1505,1508,1508,1512,1515,1515,1519,1522,1522,1525,1529,1532,1532,1532,1536,1536,1539,1539,1536,1536,1536,1529,1522,1522,1519,1515,1512,1512,1505,1505,1505,1502,1502,1502,1502,1502,1502,1502,1498,1498,1498,1498,1498,1495,1495,1495,1495,1495,1495,1495,1495,1498,1498,1498,1498,1502,1502,1502,1505,1508,1508,1508,1508,1508,1512,1512,1508,1508,1508,1505,1502,1502,1502,1498,1498,1498,1498,1495,1495,1492,1492,1492,1488,1488,1488,1485,1485,1485,1485,1485,1485,1482,1482,1482,1482,1482,1485,1485,1485,1488,1488,1488,1488,1488,1488,1488,1488,1488,1488,1488,1488,1488,1488,1492,1492,1492,1492,1492,1492,1492,1492,1495,1495,1495,1495,1498,1498,1498,1498,1498,1498,1498,1498,1498,1495,1495,1495,1492,1492,1488,1488,1485,1485,1482,1479,1479,1475,1475,1475,1475,1475,1479,1479,1479,1485,1485,1485,1492,1495,1495,1495,1498,1495,1495,1495,1495,1498,1502,1502,1502,1502,1505,1505,1505,1505,1505,1508,1508,1508,1508,1508,1508,1508,1508,1508,1505,1505,1505,1505,1505,1505,1505,1502,1502,1498,1495,1495,1488,1488,1488,1485,1482,1482,1479,1475,1475,1472,1472,1472,1475,1475,1479,1482,1482,1482,1485,1485,1488,1492,1492,1492,1495,1495,1495,1492,1492,1488,1488,1488,1485,1485,1485,1482,1482,1482,1482,1482,1482,1479,1479,1479,1479,1479,1479,1479,1479,1479,1479,1479,1479,1479,1479,1479,1482,1482,1482,1482,1482,1482,1482,1482,1482,1482,1482,1482,1482,1482,1482,1485,1485,1485,1485,1488,1488,1482,1475,1475,1469,1462,1462,1459,1456,1456,1456,1456,1456,1456,1459,1466,1466,1472,1482,1488,1488,1492,1495,1495,1498,1502,1502,1505,1505,1505,1505,1505,1505,1502,1498,1498,1495,1492,1492,1482,1479,1479,1469,1462,1462,1453,1447,1447,1441,1434,1434,1431,1431,1431,1428,1428,1428,1431,1431,1434,1437,1437,1444,1453,1453,1462,1469,1475,1475,1479,1485,1485,1488,1492,1492,1488,1488,1488,1488,1488,1488,1488,1488,1492,1488,1488,1488,1488,1492,1492,1492,1492,1495,1495,1495,1495,1495,1495,1495,1495,1495,1495,1495,1495,1492,1492,1492,1488,1488,1488,1488,1488,1485,1485,1482,1482,1482,1479,1479,1479,1479,1479,1479,1479,1479,1479,1479,1479,1479,1479,1482,1482,1482,1485,1485,1485,1485,1488,1488,1488,1488,1488,1488,1488,1488,1485,1485,1485,1485,1485,1485,1485,1485,1488,1488,1488,1492,1492,1492,1492,1492,1495,1495,1495,1498,1498,1498,1498,1502,1502,1502,1502,1505,1505,1505,1505,1505,1505,1505,1505,1505,1505,1505,1505,1505,1505,1505,1505,1505,1505,1502,1502,1502,1502,1502,1498,1498,1498,1498,1495,1495,1495,1492,1492,1492,1492,1492,1492,1492,1492,1492,1492,1495,1495,1495,1498,1498,1498,1495,1495,1495,1495,1495,1495,1492,1488,1488,1488,1488,1488,1485,1485,1485,1485,1485,1485,1485,1482,1482,1482,1482,1485,1492,1492,1492,1495,1495,1495,1498,1498,1502,1505,1508,1508,1505,1505,1505,1505,1508,1508,1508,1508,1508,1508,1508,1508,1508,1508,1508,1508,1512,1512,1512,1512,1515,1515,1519,1519,1519,1522,1522,1522,1522,0,0,0,2250,2250,2273,2273,2280,2280,2280,2296,2312,2336,2336,2352,2386,2386,2411,2437,2437,2455,2464,2473,2473,2482,2482,2482,2473,2473,2473,2464,2464,2455,2455,2455,2446,2446,2446
1495,1495,1495,1498,1502,1502,1505,1508,1508,1512,1515,1515,1519,1522,1522,1525,1529,1529,1529,1532,1532,1532,1532,1532,1529,1529,1529,1522,1519,1519,1515,1512,1508,1508,1505,1502,1502,1498,1495,1495,1495,1495,1495,1495,1495,1495,1495,1495,1495,1495,1495,1495,1495,1495,1495,1495,1495,1498,1498,1498,1498,1502,1502,1502,1505,1505,1505,1505,1508,1508,1505,1505,1505,1502,1502,1502,1498,1498,1498,1498,1498,1498,1498,1495,1495,1492,1492,1492,1488,1488,1488,1485,1485,1485,1485,1485,1485,1485,1485,1485,1485,1485,1485,1485,1485,1488,1488,1488,1488,1488,1488,1488,1488,1488,1485,1485,1485,1485,1485,1488,1488,1488,1488,1488,1492,1492,1492,1492,1492,1495,1495,1495,1495,1495,1495,1498,1498,1495,1495,1495,1495,1495,1492,1488,1488,1488,1485,1482,1482,1479,1475,1475,1475,1475,1475,1475,1475,1479,1479,1479,1482,1482,1485,1492,1495,1495,1495,1495,1495,1495,1495,1495,1495,1498,1498,1498,1502,1505,1505,1505,1505,1505,1508,1508,1508,1508,1508,1508,1508,1508,1508,1505,1505,1505,1505,1505,1505,1505,1502,1502,1498,1495,1495,1488,1485,1485,1482,1479,1479,1479,1475,1475,1472,1472,1472,1475,1475,1475,1479,1479,1482,1485,1485,1488,1488,1488,1492,1495,1495,1495,1492,1492,1488,1485,1485,1482,1482,1482,1482,1479,1479,1479,1479,1479,1479,1479,1479,1479,1479,1479,1479,1479,1479,1479,1479,1479,1479,1479,1482,1482,1482,1482,1485,1485,1482,1482,1482,1482,1482,1482,1482,1482,1482,1482,1485,1485,1485,1485,1488,1488,1482,1475,1475,1469,1466,1466,1459,1456,1456,1456,1456,1459,1459,1459,1466,1472,1472,1482,1488,1488,1492,1495,1495,1498,1498,1498,1502,1502,1502,1502,1502,1502,1498,1495,1495,1492,1485,1485,1482,1475,1475,1466,1459,1459,1453,1444,1444,1437,1434,1434,1431,1428,1428,1425,1425,1425,1428,1428,1431,1434,1434,1444,1450,1450,1459,1466,1469,1469,1475,1482,1482,1488,1488,1488,1488,1488,1488,1488,1488,1488,1488,1488,1488,1488,1488,1488,1488,1492,1492,1492,1492,1495,1495,1495,1495,1495,1495,1495,1495,1495,1495,1495,1495,1492,1492,1492,1488,1488,1488,1488,1488,1485,1485,1482,1482,1482,1479,1479,1479,1479,1479,1479,1479,1479,1479,1479,1479,1479,1479,1482,1482,1482,1482,1485,1485,1485,1485,1485,1485,1485,1485,1485,1488,1488,1485,1485,1485,1485,1485,1485,1485,1485,1485,1485,1488,1488,1488,1488,1492,1492,1492,1495,1495,1495,1495,1498,1498,1498,1502,1502,1502,1502,1502,1502,1502,1502,1502,1502,1502,1502,1502,1505,1505,1505,1505,1505,1505,1505,1505,1502,1502,1502,1502,1502,1498,1498,1498,1498,1495,1495,1495,1492,1492,1492,1492,1492,1492,1492,1492,1492,1492,1492,1492,1492,1492,1492,1492,1492,1492,1492,1488,1488,1488,1488,1485,1485,1485,1482,1482,1482,1482,1482,1482,1482,1482,1482,1482,1482,1482,1482,1482,1488,1488,1492,1492,1492,1495,1498,1498,1502,1505,1508,1508,1505,1505,1505,1505,1508,1508,1508,1508,1508,1508,1508,1508,1508,1508,1508,1508,1508,1508,1508,1508,1512,1512,1515,1519,1519,1522,1522,1522,1522,0,0,0,0,2273,2273,2273,2280,2280,2280,2296,2312,2336,2336,2352,2386,2386,2411,2437,2437,2455,2464,2473,2473,2482,2482,2473,2464,2464,2464,2455,2455,2455,2446,2446,2446,2437,2437
1495,1495,1495,1498,1502,1502,1505,1508,1508,1512,1515,1515,1519,1519,1519,1522,1525,1525,1525,1525,1525,1525,1525,1525,1525,1522,1522,1519,1515,1515,1512,1508,1505,1505,1502,1498,1498,1495,1492,1492,1492,1492,1492,1488,1488,1488,1488,1492,1492,1492,1492,1495,1495,1495,1495,1495,1495,1498,1498,1498,1498,1502,1502,1502,1505,1505,1505,1505,1508,1508,1505,1505,1505,1502,1502,1502,1498,1498,1498,1495,1495,1492,1492,1492,1492,1488,1488,1488,1485,1485,1485,1485,1485,1485,1485,1485,1485,1485,1485,1485,1485,1485,1485,1485,1485,1488,1488,1488,1488,1488,1488,1488,1488,1488,1485,1485,1485,1485,1485,1485,1485,1485,1485,1485,1488,1488,1488,1492,1492,1492,1492,1492,1492,1492,1495,1495,1495,1495,1495,1495,1492,1492,1488,1488,1488,1488,1485,1482,1482,1479,1475,1475,1475,1475,1475,1475,1475,1479,1479,1479,1482,1482,1485,1492,1495,1495,1495,1495,1495,1495,1495,1495,1495,1498,1498,1498,1502,1502,1502,1502,1502,1502,1502,1502,1502,1502,1502,1502,1502,1502,1502,1502,1502,1502,1502,1502,1502,1502,1498,1498,1495,1492,1492,1488,1485,1485,1482,1479,1479,1475,1472,1469,1469,1469,1472,1472,1472,1475,1479,1479,1482,1485,1485,1488,1488,1488,1492,1495,1495,1492,1488,1488,1485,1485,1485,1482,1482,1482,1479,1479,1479,1479,1479,1479,1479,1479,1479,1479,1479,1479,1479,1479,1479,1479,1479,1479,1479,1479,1482,1482,1482,1482,1485,1485,1482,1482,1482,1482,1482,1482,1482,1482,1482,1482,1485,1485,1485,1485,1485,1485,1482,1475,1475,1469,1466,1466,1459,1456,1456,1456,1456,1459,1459,1459,1466,1472,1472,1482,1485,1485,1492,1492,1492,1495,1498,1498,1498,1498,1498,1498,1498,1498,1495,1492,1492,1488,1485,1485,1479,1472,1472,1466,1459,1459,1453,1444,1444,1437,1434,1434,1431,1428,1428,1425,1425,1425,1428,1428,1431,1434,1434,1444,1450,1450,1459,1466,1469,1469,1475,1482,1482,1488,1488,1488,1488,1488,1488,1488,1488,1488,1488,1488,1488,1488,1488,1488,1488,1492,1492,1492,1492,1495,1495,1495,1495,1495,1495,1495,1495,1495,1495,1495,1495,1492,1492,1492,1488,1488,1488,1488,1488,1485,1485,1482,1482,1482,1482,1482,1479,1479,1479,1479,1479,1482,1479,1479,1479,1479,1479,1482,1482,1482,1482,1485,1485,1485,1485,1485,1485,1485,1485,1485,1485,1485,1485,1485,1485,1485,1485,1485,1485,1485,1485,1485,1488,1488,1488,1488,1492,1492,1492,1495,1495,1495,1495,1498,1498,1498,1502,1502,1502,1502,1502,1502,1502,1502,1502,1502,1502,1502,1502,1502,1502,1502,1502,1502,1502,1502,1502,1502,1502,1502,1502,1502,1498,1498,1495,1495,1495,1492,1492,1492,1492,1492,1492,1492,1492,1488,1488,1488,1488,1488,1488,1488,1488,1488,1488,1488,1488,1488,1485,1485,1485,1482,1482,1482,1479,1479,1479,1479,1479,1479,1479,1479,1479,1479,1479,1479,1479,1479,1482,1485,1485,1488,1492,1492,1495,1498,1502,1502,1505,1508,1508,1505,1505,1505,1505,1508,1508,1508,1508,1508,1508,1508,1508,1508,1508,1508,1508,1508,1508,1508,1508,1512,1512,1515,1515,1515,1519,1519,1519,1519,0,0,0,2213,2213,2265,2265,2273,2273,2273,2288,2304,2320,2320,2344,2369,2369,2394,2429,2429,2446,2455,2464,2464,2473,2473,2473,2464,2464,2455,2446,2446,2446,2437,2437,2437,2429,2429
1495,1495,1495,1498,1502,1502,1505,1508,1508,1512,1515,1515,1519,1519,1519,1519,1522,1522,1522,1522,1522,1522,1525,1525,1525,1522,1522,1519,1515,1515,1512,1508,1505,1505,1502,1498,1498,1495,1492,1492,1492,1492,1492,1488,1488,1488,1488,1492,1492,1492,1492,1492,1495,1495,1495,1495,1495,1498,1498,1498,1498,1498,1498,1502,1502,1502,1502,1502,1502,1502,1502,1502,1502,1498,1498,1498,1498,1498,1495,1492,1492,1488,1488,1488,1488,1485,1485,1485,1482,1482,1482,1482,1482,1485,1485,1485,1485,1485,1485,1485,1485,1485,1488,1488,1488,1488,1488,1488,1488,1488,1488,1488,1485,1485,1485,1485,1485,1485,1485,1485,1485,1485,1485,1485,1488,1488,1488,1492,1492,1492,1492,1492,1492,1492,1495,1495,1495,1495,1495,1495,1492,1492,1488,1488,1488,1485,1485,1482,1482,1479,1475,1475,1472,1472,1472,1472,1475,1475,1475,1479,1482,1482,1485,1492,1492,1492,1495,1495,1495,1495,1495,1495,1495,1495,1495,1495,1498,1498,1498,1498,1498,1498,1498,1498,1498,1498,1498,1498,1498,1498,1498,1498,1498,1498,1495,1495,1495,1495,1495,1495,1492,1488,1488,1482,1482,1482,1479,1475,1475,1472,1472,1469,1469,1469,1472,1472,1472,1475,1479,1479,1482,1485,1485,1488,1492,1492,1492,1495,1495,1492,1488,1488,1485,1485,1485,1482,1482,1482,1479,1479,1479,1479,1479,1475,1475,1475,1479,1479,1479,1479,1479,1479,1479,1479,1479,1479,1479,1479,1482,1482,1482,1482,1485,1485,1482,1482,1482,1482,1482,1482,1482,1482,1482,1482,1482,1485,1485,1485,1485,1485,1485,1479,1479,1469,1469,1469,1462,1462,1462,1459,1459,1459,1459,1462,1466,1472,1472,1482,1482,1482,1485,1492,1492,1495,1495,1495,1498,1498,1498,1498,1498,1498,1495,1492,1492,1488,1485,1485,1479,1472,1472,1466,1459,1459,1453,1444,1444,1437,1434,1434,1431,1428,1428,1428,1425,1425,1425,1425,1428,1434,1434,1441,1447,1447,1453,1459,1466,1466,1472,1479,1479,1485,1488,1488,1488,1488,1488,1488,1488,1488,1488,1488,1488,1488,1488,1488,1488,1492,1492,1492,1492,1495,1495,1498,1498,1498,1498,1498,1498,1498,1498,1498,1498,1492,1492,1492,1488,1488,1488,1488,1488,1485,1485,1482,1482,1482,1482,1482,1482,1482,1482,1482,1482,1482,1482,1479,1479,1479,1482,1482,1482,1482,1482,1485,1485,1485,1485,1485,1485,1485,1485,1485,1485,1485,1485,1485,1485,1485,1485,1485,1485,1485,1485,1485,1485,1485,1485,1488,1492,1492,1492,1492,1495,1495,1495,1495,1495,1498,1498,1498,1502,1502,1502,1502,1502,1502,1502,1502,1502,1502,1502,1502,1502,1502,1502,1502,1502,1502,1502,1502,1502,1502,1498,1498,1498,1495,1495,1495,1492,1492,1492,1492,1488,1488,1488,1488,1488,1485,1485,1485,1485,1485,1485,1485,1485,1485,1488,1488,1488,1488,1485,1485,1485,1482,1482,1482,1479,1479,1479,1479,1479,1479,1479,1479,1479,1479,1479,1479,1479,1479,1482,1485,1485,1488,1492,1492,1495,1495,1502,1502,1502,1508,1508,1505,1505,1505,1505,1508,1508,1508,1508,1508,1508,1508,1508,1505,1505,1508,1508,1508,1508,1508,1508,1512,1512,1512,1515,1515,1515,1515,1515,1515,0,0,0,2198,2198,2257,2257,2257,2265,2265,2273,2288,2304,2304,2328,2352,2352,2377,2411,2411,2429,2446,2455,2455,2464,2464,2464,2464,2464,2455,2446,2446,2446,2437,2437,2437,2429,2429
1495,1495,1495,1498,1502,1502,1505,1508,1508,1512,1515,1515,1519,1519,1519,1519,1522,1522,1522,1522,1522,1522,1519,1519,1519,1515,1515,1512,1508,1508,1505,1505,1502,1502,1498,1495,1495,1492,1488,1488,1488,1485,1485,1485,1488,1488,1488,1488,1488,1492,1492,1492,1492,1492,1492,1495,1495,1495,1495,1495,1498,1498,1498,1498,1498,1498,1498,1502,1502,1498,1498,1498,1495,1495,1495,1495,1492,1492,1488,1488,1485,1485,1485,1482,1482,1482,1485,1485,1482,1482,1482,1482,1482,1485,1485,1485,1485,1485,1485,1485,1488,1488,1488,1488,1488,1488,1488,1488,1488,1488,1488,1488,1485,1485,1485,1485,1485,1485,1485,1485,1485,1485,1485,1485,1485,1488,1488,1488,1492,1492,1492,1492,1492,1492,1492,1492,1492,1492,1492,1488,1488,1488,1488,1485,1485,1485,1482,1479,1479,1475,1472,1472,1472,1472,1472,1472,1472,1475,1475,1475,1482,1485,1485,1488,1492,1492,1492,1495,1492,1492,1492,1492,1492,1495,1495,1495,1495,1495,1495,1495,1495,1495,1498,1498,1498,1498,1498,1498,1498,1498,1498,1498,1498,1498,1495,1495,1495,1495,1495,1495,1492,1488,1488,1482,1482,1482,1479,1475,1475,1472,1472,1469,1469,1469,1469,1472,1472,1475,1479,1479,1482,1485,1485,1488,1488,1492,1492,1495,1495,1492,1488,1488,1485,1485,1485,1482,1482,1482,1479,1479,1479,1479,1479,1475,1475,1475,1479,1479,1479,1479,1479,1479,1479,1479,1479,1482,1482,1482,1485,1482,1482,1482,1485,1485,1485,1482,1482,1482,1479,1479,1479,1479,1482,1482,1482,1482,1485,1485,1485,1485,1485,1479,1479,1472,1472,1472,1466,1466,1466,1466,1462,1462,1462,1466,1469,1475,1475,1482,1482,1482,1485,1492,1492,1495,1495,1495,1498,1498,1498,1495,1495,1495,1492,1488,1488,1485,1482,1482,1475,1472,1472,1466,1459,1459,1453,1444,1444,1437,1434,1434,1431,1428,1428,1428,1425,1425,1425,1425,1428,1431,1431,1437,1444,1444,1450,1456,1462,1462,1469,1475,1475,1482,1485,1485,1488,1488,1488,1488,1485,1485,1485,1485,1488,1488,1488,1488,1488,1488,1492,1492,1492,1495,1495,1498,1498,1498,1498,1498,1498,1498,1498,1498,1498,1495,1495,1495,1492,1492,1492,1488,1488,1485,1485,1485,1485,1482,1482,1485,1485,1482,1482,1482,1482,1482,1482,1479,1479,1479,1482,1482,1482,1482,1482,1485,1485,1485,1485,1485,1485,1485,1485,1485,1485,1485,1485,1482,1482,1482,1482,1482,1482,1485,1485,1485,1485,1485,1485,1488,1488,1488,1492,1492,1495,1492,1492,1495,1495,1495,1498,1498,1498,1498,1498,1498,1498,1498,1498,1498,1498,1498,1498,1498,1498,1498,1498,1498,1498,1502,1502,1502,1502,1502,1498,1498,1498,1495,1495,1495,1492,1492,1492,1492,1488,1488,1488,1488,1488,1485,1485,1485,1485,1485,1485,1485,1485,1485,1485,1485,1482,1482,1482,1482,1482,1479,1479,1479,1479,1479,1479,1479,1475,1475,1479,1479,1479,1479,1479,1479,1479,1479,1479,1485,1485,1488,1488,1488,1492,1495,1498,1498,1502,1505,1505,1505,1505,1505,1505,1508,1508,1508,1508,1508,1508,1508,1508,1505,1505,1505,1505,1508,1508,1508,1508,1508,1508,1508,1512,1512,1512,1515,1515,1515,0,0,0,2198,2198,2257,2257,2257,2265,2265,2273,2288,2304,2304,2328,2352,2352,2377,2411,2411,2429,2446,2455,2455,2464,2464,2464,2455,2455,2446,2437,2437,2429,2429,2429,2420,2420,2420
1492,1492,1495,1495,1498,1498,1502,1505,1505,1508,1512,1512,1512,1515,1515,1515,1515,1515,1515,1515,1515,1515,1512,1512,1508,1508,1508,1508,1505,1505,1505,1502,1498,1498,1495,1492,1492,1488,1485,1485,1485,1485,1485,1485,1485,1485,1485,1485,1488,1488,1488,1492,1492,1492,1492,1492,1492,1495,1495,1495,1498,1498,1498,1498,1498,1498,1498,1502,1502,1498,1498,1498,1495,1495,1495,1495,1492,1492,1488,1488,1485,1485,1485,1482,1482,1482,1482,1482,1482,1482,1482,1482,1482,1482,1482,1482,1485,1485,1485,1485,1485,1485,1485,1488,1488,1488,1488,1488,1488,1488,1488,1488,1485,1485,1485,1485,1485,1485,1485,1485,1485,1485,1485,1485,1485,1488,1488,1488,1488,1488,1488,1492,1492,1492,1492,1492,1488,1488,1488,1488,1488,1488,1485,1485,1482,1482,1479,1479,1479,1475,1472,1472,1472,1472,1472,1472,1472,1475,1475,1475,1482,1485,1485,1488,1492,1492,1492,1495,1492,1492,1492,1492,1492,1495,1495,1495,1495,1495,1495,1495,1495,1495,1495,1495,1495,1495,1495,1492,1492,1492,1492,1492,1492,1492,1492,1492,1492,1488,1488,1488,1485,1485,1485,1482,1479,1479,1479,1475,1475,1472,1469,1469,1469,1469,1469,1472,1472,1475,1479,1479,1482,1482,1482,1485,1488,1492,1492,1492,1492,1492,1488,1488,1485,1485,1485,1482,1479,1479,1479,1479,1479,1479,1479,1479,1479,1479,1479,1479,1479,1479,1482,1482,1482,1482,1482,1482,1482,1482,1485,1482,1482,1482,1485,1485,1485,1482,1482,1482,1479,1479,1479,1479,1482,1482,1482,1482,1485,1485,1485,1485,1485,1479,1479,1472,1472,1472,1466,1466,1466,1466,1462,1462,1462,1466,1469,1475,1475,1479,1482,1482,1485,1488,1488,1492,1495,1495,1495,1495,1495,1492,1492,1492,1492,1488,1488,1482,1479,1479,1475,1469,1469,1466,1459,1459,1453,1444,1444,1437,1434,1434,1431,1431,1428,1428,1425,1425,1425,1425,1425,1428,1428,1434,1444,1444,1450,1456,1462,1462,1469,1475,1475,1482,1485,1485,1488,1488,1488,1488,1485,1485,1485,1485,1488,1488,1488,1488,1488,1488,1492,1492,1492,1495,1495,1495,1498,1498,1498,1498,1498,1498,1495,1495,1495,1492,1492,1492,1492,1492,1492,1488,1488,1485,1485,1485,1485,1482,1482,1485,1485,1485,1485,1482,1482,1482,1482,1482,1482,1482,1482,1482,1482,1482,1485,1485,1485,1485,1485,1485,1485,1485,1485,1485,1485,1485,1485,1482,1482,1482,1482,1482,1482,1482,1485,1485,1485,1485,1485,1488,1488,1488,1492,1492,1495,1492,1492,1495,1495,1495,1498,1498,1498,1498,1498,1498,1498,1498,1498,1498,1498,1498,1498,1498,1498,1498,1498,1498,1498,1498,1498,1498,1498,1498,1498,1498,1495,1495,1492,1492,1492,1492,1492,1488,1488,1488,1485,1485,1485,1485,1485,1485,1485,1485,1485,1485,1482,1482,1482,1482,1482,1482,1479,1475,1475,1475,1475,1475,1475,1475,1475,1475,1475,1475,1475,1475,1475,1479,1479,1479,1479,1479,1479,1485,1485,1485,1488,1488,1488,1492,1495,1495,1498,1505,1505,1505,1505,1505,1508,1508,1508,1508,1508,1508,1508,1508,1508,1505,1505,1505,1505,1508,1508,1508,1508,1508,1508,1508,1512,1512,1512,1515,1515,1515,1587,0,0,2191,2191,2242,2242,2250,2257,2257,2257,2280,2296,2296,2312,2336,2336,2360,2386,2386,2411,2420,2437,2437,2437,2446,2437,2437,2437,2429,2429,2429,2420,2411,2411,2411,2411,2411
1492,1492,1492,1495,1495,1495,1498,1502,1502,1505,1508,1508,1508,1508,1508,1508,1512,1512,1508,1508,1508,1508,1505,1505,1505,1505,1505,1505,1505,1505,1505,1502,1498,1498,1495,1492,1492,1488,1485,1485,1485,1485,1485,1485,1485,1485,1485,1485,1488,1488,1488,1492,1492,1492,1492,1492,1492,1495,1495,1495,1495,1495,1495,1495,1495,1495,1495,1495,1495,1495,1495,1495,1492,1492,1492,1492,1488,1488,1485,1485,1482,1482,1479,1479,1479,1479,1479,1479,1475,1475,1479,1479,1479,1479,1479,1479,1482,1482,1482,1485,1485,1485,1485,1488,1488,1488,1488,1488,1488,1488,1488,1488,1485,1485,1485,1482,1482,1482,1482,1482,1482,1485,1485,1485,1485,1488,1488,1488,1488,1488,1488,1492,1492,1492,1492,1492,1488,1488,1488,1488,1488,1488,1485,1485,1482,1482,1479,1479,1479,1475,1472,1472,1469,1469,1469,1469,1469,1472,1472,1475,1479,1485,1485,1488,1492,1492,1492,1492,1492,1492,1492,1488,1488,1492,1492,1492,1492,1492,1492,1492,1492,1492,1492,1492,1492,1488,1488,1488,1488,1488,1488,1488,1488,1488,1485,1485,1485,1485,1485,1485,1482,1479,1479,1479,1475,1475,1475,1472,1472,1469,1469,1469,1469,1469,1469,1472,1472,1475,1479,1479,1482,1482,1482,1485,1488,1492,1492,1492,1492,1492,1488,1488,1485,1485,1485,1482,1479,1479,1479,1479,1479,1479,1479,1479,1479,1479,1479,1479,1479,1479,1479,1479,1482,1482,1482,1482,1482,1482,1485,1482,1482,1482,1482,1482,1482,1482,1482,1479,1479,1479,1479,1479,1482,1482,1482,1482,1485,1485,1485,1488,1488,1482,1482,1479,1475,1475,1469,1469,1469,1469,1466,1466,1466,1469,1469,1475,1475,1479,1482,1482,1485,1488,1488,1492,1492,1495,1495,1492,1492,1492,1492,1492,1492,1488,1488,1482,1479,1479,1475,1469,1469,1466,1459,1459,1453,1447,1447,1441,1434,1434,1431,1431,1428,1428,1425,1425,1425,1425,1425,1428,1428,1434,1441,1441,1447,1450,1456,1456,1466,1472,1472,1479,1482,1482,1485,1488,1488,1488,1485,1485,1485,1485,1488,1488,1488,1488,1488,1488,1492,1492,1492,1492,1495,1495,1495,1495,1495,1495,1495,1495,1495,1495,1495,1492,1492,1492,1488,1488,1488,1492,1488,1488,1488,1485,1485,1485,1485,1485,1485,1485,1485,1485,1485,1485,1485,1485,1485,1485,1485,1482,1482,1482,1485,1485,1485,1485,1485,1485,1485,1485,1485,1485,1485,1485,1485,1482,1482,1482,1482,1482,1482,1482,1485,1485,1485,1485,1485,1488,1488,1488,1492,1492,1495,1492,1492,1495,1495,1495,1495,1495,1495,1495,1495,1498,1498,1498,1498,1498,1498,1498,1495,1495,1495,1495,1495,1495,1495,1495,1495,1495,1495,1495,1495,1495,1495,1492,1492,1492,1492,1488,1488,1485,1485,1485,1485,1485,1485,1485,1485,1485,1482,1482,1482,1482,1479,1479,1479,1479,1479,1479,1475,1475,1475,1475,1475,1475,1475,1475,1475,1475,1475,1475,1475,1475,1475,1479,1479,1479,1479,1479,1479,1485,1485,1485,1488,1488,1488,1492,1495,1495,1498,1502,1502,1505,1505,1505,1505,1508,1508,1508,1508,1508,1508,1508,1508,1505,1505,1505,1505,1505,1505,1505,1505,1508,1508,1508,1512,1508,1508,1508,1508,1508,1564,0,0,2191,2191,2235,2235,2242,2250,2250,2257,2273,2288,2288,2304,2328,2328,2352,2369,2369,2394,2403,2420,2420,2429,2437,2429,2429,2429,2420,2411,2411,2411,2411,2411,2411,2411,2411
1492,1492,1492,1495,1495,1495,1498,1502,1502,1505,1508,1508,1508,1508,1508,1508,1512,1512,1508,1508,1508,1508,1505,1505,1505,1505,1505,1502,1502,1502,1502,1498,1495,1495,1492,1488,1488,1485,1485,1485,1482,1482,1482,1482,1482,1482,1482,1485,1485,1485,1485,1488,1488,1488,1492,1492,1492,1492,1492,1492,1492,1492,1492,1492,1492,1492,1492,1492,1495,1492,1492,1492,1488,1488,1488,1488,1485,1485,1482,1479,1479,1479,1479,1475,1475,1475,1475,1475,1472,1472,1475,1475,1475,1479,1479,1479,1482,1482,1482,1485,1485,1485,1485,1488,1488,1488,1488,1488,1488,1488,1488,1488,1485,1485,1485,1482,1482,1482,1482,1482,1482,1485,1485,1485,1485,1488,1488,1488,1488,1488,1488,1488,1488,1488,1488,1488,1488,1488,1488,1485,1485,1485,1485,1482,1479,1479,1475,1475,1475,1472,1469,1469,1466,1466,1466,1466,1469,1469,1469,1475,1475,1482,1482,1485,1488,1488,1492,1492,1488,1488,1488,1488,1488,1488,1488,1488,1488,1488,1488,1485,1485,1485,1485,1485,1485,1485,1485,1485,1488,1488,1488,1488,1488,1488,1485,1485,1485,1485,1485,1485,1482,1479,1479,1479,1475,1475,1475,1472,1472,1469,1469,1469,1469,1469,1469,1472,1472,1472,1479,1479,1479,1482,1482,1485,1488,1488,1488,1488,1488,1488,1485,1485,1485,1482,1482,1479,1479,1479,1479,1479,1479,1479,1475,1475,1475,1475,1479,1479,1479,1479,1479,1479,1479,1479,1479,1482,1482,1485,1482,1482,1482,1482,1482,1482,1479,1479,1479,1479,1479,1479,1475,1475,1479,1482,1482,1482,1485,1485,1488,1488,1488,1488,1488,1485,1479,1479,1475,1475,1475,1475,1472,1472,1472,1472,1475,1475,1475,1479,1482,1482,1485,1488,1488,1492,1492,1495,1495,1492,1492,1492,1488,1488,1488,1485,1485,1482,1479,1479,1475,1469,1469,1466,1459,1459,1453,1447,1447,1441,1434,1434,1431,1431,1428,1428,1425,1425,1425,1425,1425,1425,1425,1431,1437,1437,1441,1447,1453,1453,1459,1469,1469,1475,1482,1482,1485,1485,1485,1485,1485,1485,1485,1485,1485,1485,1488,1488,1488,1488,1488,1488,1492,1492,1495,1495,1495,1495,1495,1495,1495,1495,1495,1495,1495,1492,1492,1492,1488,1488,1488,1492,1492,1492,1488,1488,1488,1488,1488,1488,1488,1488,1488,1488,1488,1488,1488,1485,1485,1485,1485,1482,1482,1482,1485,1485,1485,1485,1485,1485,1485,1485,1485,1485,1485,1485,1485,1482,1482,1482,1482,1482,1482,1482,1482,1482,1485,1485,1485,1485,1488,1488,1488,1492,1492,1492,1492,1492,1492,1495,1495,1495,1495,1495,1495,1495,1495,1498,1495,1495,1495,1495,1495,1495,1495,1492,1492,1492,1495,1495,1495,1495,1495,1495,1495,1495,1495,1492,1492,1492,1492,1488,1488,1485,1485,1485,1485,1485,1485,1485,1485,1485,1482,1482,1482,1482,1479,1479,1479,1479,1479,1479,1475,1475,1475,1475,1475,1475,1472,1472,1472,1472,1475,1475,1475,1475,1475,1479,1479,1479,1479,1479,1479,1482,1482,1485,1485,1485,1488,1488,1492,1492,1495,1498,1498,1502,1502,1502,1505,1505,1505,1508,1508,1508,1505,1505,1505,1505,1505,1505,1505,1505,1505,1505,1505,1505,1505,1505,1505,1505,1505,1505,1508,1508,1508,0,0,2184,2184,2235,2235,2242,2250,2250,2257,2273,2288,2288,2304,2328,2328,2352,2369,2369,2394,2403,2420,2420,2429,2437,2429,2429,2429,2420,2411,2411,2411,2403,2403,2403,2403,2403
1488,1492,1492,1492,1495,1495,1495,1498,1498,1502,1502,1502,1502,1502,1502,1505,1505,1505,1505,1502,1502,1498,1498,1502,1498,1498,1498,1498,1495,1495,1495,1492,1492,1492,1488,1485,1485,1485,1482,1482,1482,1479,1479,1479,1479,1479,1479,1482,1485,1485,1485,1485,1488,1488,1488,1492,1492,1492,1492,1492,1492,1492,1492,1492,1492,1492,1492,1492,1495,1492,1492,1492,1488,1488,1488,1488,1485,1485,1482,1479,1479,1479,1479,1475,1475,1475,1475,1475,1472,1472,1475,1475,1475,1475,1475,1479,1479,1482,1482,1482,1485,1485,1485,1485,1485,1488,1488,1488,1488,1488,1488,1488,1485,1485,1485,1482,1482,1482,1482,1482,1482,1482,1485,1485,1485,1485,1485,1488,1488,1488,1488,1488,1488,1488,1488,1488,1485,1485,1485,1485,1482,1482,1482,1479,1475,1475,1472,1472,1472,1469,1466,1466,1466,1466,1466,1466,1469,1469,1469,1475,1475,1482,1482,1485,1488,1488,1492,1492,1488,1488,1488,1488,1488,1488,1488,1488,1488,1488,1488,1485,1485,1485,1485,1485,1485,1485,1485,1482,1482,1482,1482,1482,1482,1482,1482,1482,1482,1482,1479,1479,1479,1475,1475,1475,1472,1472,1472,1472,1472,1469,1469,1466,1466,1466,1469,1472,1472,1472,1479,1479,1479,1482,1482,1485,1488,1488,1488,1488,1488,1485,1482,1482,1482,1479,1479,1479,1475,1475,1475,1475,1475,1475,1472,1472,1472,1472,1475,1475,1475,1475,1479,1479,1479,1479,1479,1482,1482,1485,1482,1482,1482,1482,1482,1482,1479,1479,1479,1479,1479,1479,1475,1475,1479,1482,1482,1482,1485,1485,1488,1492,1488,1488,1488,1485,1479,1479,1475,1475,1475,1475,1472,1472,1472,1472,1475,1475,1475,1479,1479,1479,1482,1485,1485,1488,1492,1492,1492,1492,1492,1492,1488,1488,1485,1482,1482,1479,1479,1479,1475,1469,1469,1466,1459,1459,1456,1450,1450,1444,1437,1434,1434,1431,1428,1428,1425,1425,1425,1422,1422,1425,1425,1428,1434,1434,1437,1441,1450,1450,1459,1469,1469,1475,1482,1482,1485,1485,1485,1485,1485,1485,1485,1485,1485,1485,1488,1488,1488,1488,1488,1488,1492,1492,1495,1495,1495,1495,1495,1495,1495,1495,1495,1495,1492,1492,1492,1488,1488,1488,1488,1488,1492,1492,1488,1488,1488,1488,1488,1488,1488,1488,1488,1488,1488,1488,1488,1485,1485,1485,1485,1485,1485,1485,1485,1485,1485,1485,1485,1485,1485,1485,1485,1485,1485,1485,1485,1482,1482,1482,1482,1482,1482,1482,1482,1482,1482,1482,1482,1485,1485,1488,1488,1488,1492,1492,1492,1492,1492,1495,1495,1495,1495,1495,1495,1495,1495,1498,1495,1495,1495,1495,1495,1495,1495,1492,1492,1492,1495,1495,1495,1495,1495,1495,1495,1495,1495,1492,1492,1492,1492,1488,1488,1485,1485,1485,1485,1485,1485,1482,1482,1482,1482,1482,1479,1479,1479,1479,1479,1479,1475,1475,1475,1475,1475,1475,1472,1472,1472,1472,1472,1472,1475,1475,1475,1475,1475,1479,1479,1479,1479,1479,1479,1482,1482,1482,1485,1485,1485,1488,1488,1488,1492,1495,1495,1498,1498,1498,1502,1505,1505,1508,1508,1508,1505,1505,1505,1505,1505,1505,1505,1505,1505,1505,1505,1505,1505,1505,1505,1505,1505,1505,1508,1508,1508,0,0,2184,2184,2235,2235,2242,2250,2250,2257,2273,2288,2288,2304,2328,2328,2344,2360,2360,2377,2394,2403,2403,2411,2420,2411,2411,2411,2411,2403,2403,2394,2394,2394,2394,2386,2386
1488,1488,1488,1488,1492,1492,1492,1495,1495,1495,1498,1498,1498,1498,1498,1498,1498,1498,1498,1498,1498,1495,1492,1492,1492,1492,1492,1492,1488,1488,1488,1488,1488,1492,1488,1485,1485,1485,1482,1482,1482,1479,1479,1479,1479,1479,1479,1482,1485,1485,1485,1485,1488,1488,1488,1492,1492,1492,1492,1492,1492,1492,1492,1492,1492,1492,1492,1492,1492,1488,1488,1488,1488,1485,1485,1485,1485,1485,1479,1479,1475,1475,1475,1472,1472,1472,1472,1472,1472,1472,1472,1472,1472,1475,1475,1475,1479,1479,1479,1482,1482,1482,1485,1485,1485,1485,1488,1488,1488,1488,1488,1488,1485,1485,1485,1482,1482,1482,1482,1482,1482,1482,1485,1485,1485,1485,1485,1488,1488,1488,1488,1488,1488,1488,1488,1488,1485,1485,1485,1485,1482,1482,1482,1479,1475,1475,1472,1472,1472,1469,1466,1466,1466,1466,1466,1466,1469,1469,1469,1472,1475,1479,1479,1482,1485,1485,1488,1488,1485,1485,1485,1485,1485,1485,1485,1485,1485,1485,1482,1482,1482,1482,1482,1482,1479,1479,1479,1479,1475,1475,1475,1475,1475,1475,1475,1475,1475,1475,1475,1475,1472,1472,1472,1472,1472,1472,1469,1469,1466,1466,1466,1466,1466,1466,1469,1469,1469,1472,1475,1475,1479,1482,1482,1485,1488,1488,1488,1488,1488,1485,1482,1482,1482,1479,1479,1479,1475,1475,1475,1475,1475,1475,1472,1472,1472,1472,1475,1475,1475,1475,1479,1479,1479,1479,1479,1479,1482,1482,1482,1482,1482,1482,1479,1479,1479,1475,1475,1475,1475,1475,1475,1475,1479,1482,1482,1482,1485,1485,1488,1492,1492,1492,1492,1488,1485,1485,1482,1482,1482,1479,1479,1475,1475,1475,1475,1479,1479,1479,1479,1479,1479,1482,1482,1485,1488,1488,1488,1488,1488,1488,1488,1488,1485,1482,1482,1479,1479,1479,1475,1469,1469,1466,1462,1462,1456,1450,1450,1444,1441,1434,1434,1434,1431,1431,1428,1425,1425,1422,1422,1425,1425,1428,1434,1434,1437,1441,1450,1450,1456,1466,1466,1472,1479,1479,1485,1485,1485,1485,1485,1485,1485,1485,1485,1485,1488,1488,1488,1488,1488,1488,1492,1492,1492,1492,1492,1492,1492,1492,1492,1492,1492,1492,1492,1488,1488,1488,1488,1488,1488,1488,1488,1492,1492,1492,1492,1492,1492,1492,1492,1492,1492,1488,1488,1488,1488,1488,1488,1488,1488,1485,1485,1485,1485,1485,1485,1485,1485,1485,1485,1485,1485,1485,1485,1485,1485,1482,1482,1482,1482,1482,1482,1482,1482,1482,1482,1482,1482,1485,1485,1488,1488,1488,1488,1488,1488,1492,1492,1492,1495,1495,1495,1495,1495,1495,1495,1495,1495,1492,1492,1492,1492,1492,1492,1492,1492,1492,1492,1492,1492,1492,1492,1492,1495,1492,1492,1492,1492,1492,1492,1488,1488,1485,1485,1485,1485,1485,1485,1482,1482,1482,1479,1479,1479,1479,1479,1479,1479,1475,1475,1475,1475,1475,1475,1475,1472,1472,1472,1472,1475,1475,1475,1475,1475,1475,1479,1479,1479,1479,1479,1479,1482,1482,1482,1482,1485,1485,1485,1488,1488,1488,1492,1495,1495,1498,1498,1498,1502,1502,1502,1505,1505,1505,1505,1502,1502,1502,1502,1502,1502,1502,1502,1502,1502,1502,1502,1502,1502,1502,1502,1505,1505,1505,1505,0,0,2184,2184,2250,2250,2250,2257,2257,2265,2280,2296,2296,2312,2328,2328,2344,2360,2360,2369,2386,2386,2386,2394,2403,2403,2403,2403,2394,2394,2394,2386,2386,2386,2386,2386,2377
1488,1488,1488,1488,1492,1492,1492,1495,1495,1495,1498,1498,1498,1498,1498,1498,1498,1498,1498,1498,1498,1495,1492,1492,1492,1492,1492,1492,1488,1488,1488,1488,1485,1485,1485,1482,1482,1482,1479,1479,1479,1475,1475,1475,1475,1479,1479,1479,1482,1482,1482,1485,1485,1485,1485,1488,1488,1488,1488,1488,1488,1488,1488,1488,1488,1488,1488,1488,1488,1488,1485,1485,1485,1485,1485,1485,1482,1482,1479,1475,1475,1475,1472,1472,1472,1472,1469,1469,1469,1469,1472,1472,1472,1472,1472,1475,1475,1479,1479,1482,1482,1482,1485,1485,1485,1485,1488,1488,1488,1488,1488,1488,1485,1485,1485,1485,1485,1482,1482,1482,1482,1482,1485,1485,1485,1488,1488,1488,1488,1488,1488,1488,1488,1485,1485,1485,1485,1482,1482,1482,1479,1479,1479,1475,1472,1472,1469,1469,1469,1466,1462,1462,1462,1462,1462,1462,1466,1469,1469,1469,1475,1479,1479,1482,1485,1485,1485,1485,1485,1485,1485,1485,1485,1485,1485,1482,1479,1479,1479,1479,1479,1475,1475,1475,1475,1475,1475,1475,1475,1475,1472,1472,1472,1475,1475,1475,1475,1475,1475,1475,1472,1472,1472,1472,1472,1472,1469,1469,1466,1466,1466,1466,1466,1466,1469,1469,1469,1475,1475,1475,1479,1482,1482,1485,1485,1485,1485,1485,1485,1479,1475,1475,1475,1475,1475,1472,1472,1472,1472,1472,1472,1472,1472,1472,1472,1472,1475,1475,1475,1475,1475,1475,1475,1475,1475,1479,1479,1479,1479,1479,1479,1479,1475,1475,1475,1475,1475,1475,1472,1472,1472,1475,1479,1479,1479,1482,1485,1485,1488,1488,1488,1488,1488,1488,1488,1488,1485,1485,1482,1482,1479,1479,1479,1479,1479,1479,1479,1479,1479,1479,1479,1482,1482,1485,1488,1488,1488,1488,1488,1488,1488,1488,1485,1482,1482,1479,1475,1475,1475,1469,1469,1466,1462,1462,1456,1450,1447,1444,1441,1434,1434,1434,1431,1431,1428,1425,1425,1422,1422,1422,1422,1425,1428,1428,1434,1437,1444,1444,1453,1462,1462,1469,1475,1475,1482,1485,1485,1485,1482,1482,1482,1485,1485,1485,1485,1488,1488,1488,1488,1488,1488,1488,1492,1492,1492,1492,1488,1488,1488,1488,1488,1488,1488,1488,1488,1488,1488,1488,1488,1488,1488,1492,1492,1492,1492,1492,1492,1492,1492,1495,1495,1492,1492,1492,1492,1492,1492,1492,1488,1488,1488,1485,1485,1485,1485,1485,1485,1485,1485,1485,1485,1485,1485,1485,1485,1482,1482,1482,1482,1482,1482,1482,1482,1482,1482,1482,1482,1482,1485,1485,1485,1485,1488,1485,1485,1488,1488,1488,1492,1492,1492,1492,1492,1492,1492,1492,1492,1492,1492,1488,1488,1488,1488,1488,1488,1488,1488,1488,1488,1488,1492,1492,1492,1492,1492,1492,1492,1492,1492,1488,1488,1485,1485,1485,1485,1485,1485,1482,1482,1482,1479,1479,1479,1479,1479,1479,1479,1475,1475,1475,1475,1475,1475,1475,1475,1475,1472,1472,1475,1475,1475,1475,1475,1475,1479,1479,1479,1479,1479,1479,1482,1482,1482,1482,1482,1485,1485,1485,1488,1488,1488,1492,1492,1495,1495,1495,1498,1502,1502,1502,1502,1502,1502,1502,1502,1498,1498,1498,1498,1498,1498,1498,1498,1498,1498,1498,1502,1502,1502,1502,1502,1502,1502,0,0,2191,2191,2257,2257,2257,2265,2273,2273,2288,2296,2296,2320,2336,2336,2344,2360,2360,2369,2386,2386,2386,2394,2403,2403,2403,2403,2394,2394,2394,2386,2386,2386,2386,2386,2377
1488,1488,1488,1488,1488,1488,1488,1492,1492,1492,1492,1492,1492,1492,1492,1495,1492,1492,1492,1492,1492,1492,1488,1488,1488,1488,1488,1488,1485,1485,1485,1485,1485,1485,1482,1482,1482,1482,1479,1479,1475,1475,1475,1475,1475,1475,1475,1479,1479,1482,1482,1482,1485,1485,1485,1485,1485,1488,1488,1488,1488,1488,1488,1488,1488,1488,1488,1488,1488,1488,1485,1485,1485,1485,1485,1485,1482,1482,1479,1475,1475,1475,1472,1472,1472,1472,1469,1469,1469,1469,1472,1472,1472,1472,1472,1475,1475,1479,1479,1479,1482,1482,1485,1485,1485,1485,1488,1488,1488,1488,1488,1488,1485,1485,1485,1485,1485,1482,1482,1482,1482,1482,1485,1485,1485,1488,1488,1488,1488,1488,1488,1485,1485,1485,1485,1485,1482,1482,1482,1479,1475,1475,1475,1472,1469,1469,1466,1466,1466,1466,1462,1462,1462,1462,1462,1462,1462,1466,1466,1469,1472,1475,1475,1482,1485,1485,1485,1485,1485,1485,1485,1485,1485,1485,1485,1482,1479,1479,1479,1479,1479,1475,1475,1475,1475,1475,1475,1475,1475,1475,1472,1472,1472,1472,1472,1472,1472,1472,1472,1472,1469,1469,1469,1469,1469,1469,1469,1466,1466,1466,1466,1466,1466,1466,1469,1469,1469,1475,1475,1475,1479,1479,1482,1482,1482,1482,1482,1479,1479,1475,1472,1472,1472,1469,1469,1469,1469,1469,1466,1466,1469,1469,1469,1469,1469,1469,1472,1472,1472,1472,1472,1472,1475,1475,1475,1475,1475,1475,1475,1479,1479,1479,1475,1475,1475,1475,1475,1475,1472,1472,1472,1475,1479,1479,1479,1482,1485,1485,1488,1488,1488,1488,1488,1488,1488,1488,1485,1485,1482,1482,1479,1479,1479,1479,1479,1479,1479,1479,1479,1479,1479,1479,1479,1485,1485,1488,1488,1488,1488,1488,1485,1485,1485,1482,1482,1479,1475,1475,1475,1469,1469,1466,1462,1462,1459,1453,1447,1447,1441,1437,1437,1434,1434,1434,1428,1425,1425,1422,1419,1419,1419,1422,1425,1425,1431,1434,1441,1441,1450,1459,1459,1466,1472,1472,1482,1485,1488,1485,1482,1482,1482,1485,1485,1485,1485,1488,1488,1488,1488,1488,1488,1488,1492,1492,1492,1492,1488,1488,1488,1488,1488,1488,1485,1485,1485,1485,1485,1485,1485,1485,1488,1488,1488,1488,1492,1492,1492,1492,1492,1495,1495,1492,1492,1492,1492,1492,1488,1488,1488,1488,1488,1485,1485,1485,1485,1485,1485,1485,1485,1485,1485,1485,1485,1485,1485,1482,1482,1482,1482,1482,1482,1482,1482,1482,1482,1482,1482,1482,1482,1482,1482,1485,1485,1485,1485,1488,1488,1488,1492,1492,1492,1492,1492,1492,1492,1492,1492,1492,1492,1488,1488,1488,1488,1488,1488,1488,1488,1488,1488,1488,1492,1492,1492,1492,1492,1492,1492,1492,1492,1488,1488,1485,1485,1485,1485,1485,1485,1482,1482,1482,1479,1479,1479,1479,1479,1479,1479,1475,1475,1475,1475,1475,1475,1475,1475,1475,1475,1475,1475,1479,1479,1479,1479,1479,1479,1479,1479,1482,1482,1482,1482,1482,1482,1482,1482,1485,1485,1485,1485,1485,1488,1492,1492,1492,1495,1495,1495,1495,1495,1498,1498,1498,1498,1502,1502,1498,1498,1498,1498,1498,1498,1498,1498,1498,1498,1498,1502,1502,1502,1502,1502,1502,1502,0,0,2206,2206,2273,2273,2273,2273,2273,2273,2288,2296,2296,2312,2328,2328,2336,2352,2352,2360,2369,2377,2377,2386,2386,2386,2386,2386,2386,2386,2386,2386,2377,2377,2377,2377,2377
1485,1485,1485,1485,1485,1485,1485,1485,1485,1485,1488,1488,1488,1488,1488,1492,1492,1492,1492,1492,1492,1488,1488,1488,1485,1485,1485,1485,1485,1485,1485,1485,1485,1485,1482,1482,1482,1479,1479,1479,1475,1475,1475,1475,1475,1475,1475,1479,1479,1482,1482,1482,1485,1485,1485,1485,1485,1488,1488,1488,1488,1488,1488,1488,1488,1488,1488,1488,1488,1485,1485,1485,1485,1482,1482,1482,1482,1482,1479,1475,1472,1472,1472,1472,1472,1469,1469,1469,1469,1469,1469,1469,1472,1472,1472,1475,1475,1479,1479,1479,1482,1482,1482,1485,1485,1485,1485,1485,1485,1488,1488,1485,1485,1485,1485,1482,1482,1482,1482,1482,1482,1482,1485,1485,1485,1485,1488,1488,1485,1485,1485,1485,1485,1485,1485,1485,1482,1482,1482,1479,1475,1475,1475,1472,1469,1469,1466,1466,1466,1466,1462,1462,1462,1462,1462,1462,1462,1466,1466,1472,1472,1475,1475,1479,1482,1482,1485,1485,1485,1482,1482,1482,1482,1482,1482,1479,1479,1479,1479,1475,1475,1475,1475,1475,1472,1472,1472,1469,1469,1469,1469,1469,1469,1469,1469,1469,1472,1472,1472,1472,1469,1469,1469,1469,1469,1469,1469,1466,1466,1466,1466,1466,1466,1466,1466,1469,1469,1472,1475,1475,1475,1479,1479,1479,1479,1479,1479,1479,1479,1475,1472,1472,1472,1469,1469,1469,1469,1469,1466,1466,1469,1469,1469,1469,1469,1469,1472,1472,1472,1472,1472,1472,1475,1475,1475,1475,1475,1475,1475,1475,1475,1475,1472,1472,1472,1469,1469,1469,1472,1472,1472,1472,1475,1479,1479,1482,1482,1482,1485,1485,1485,1488,1488,1488,1485,1485,1485,1485,1482,1482,1479,1479,1479,1475,1475,1475,1475,1475,1475,1475,1475,1479,1479,1482,1482,1485,1482,1482,1485,1485,1485,1485,1482,1482,1482,1479,1479,1479,1475,1472,1472,1469,1466,1462,1462,1456,1450,1450,1444,1441,1441,1437,1434,1434,1428,1425,1425,1422,1419,1419,1419,1422,1425,1425,1431,1434,1441,1441,1450,1459,1459,1466,1472,1472,1479,1482,1485,1485,1482,1482,1482,1482,1485,1485,1485,1485,1485,1485,1485,1485,1485,1488,1488,1488,1488,1488,1488,1485,1485,1485,1485,1485,1485,1482,1482,1482,1482,1482,1485,1485,1485,1488,1488,1488,1488,1488,1488,1492,1492,1492,1492,1492,1492,1492,1492,1488,1488,1488,1488,1485,1485,1485,1485,1485,1485,1485,1485,1485,1485,1485,1485,1485,1485,1485,1485,1482,1482,1482,1482,1482,1482,1482,1482,1482,1482,1482,1482,1482,1482,1482,1482,1485,1485,1485,1485,1488,1488,1488,1488,1488,1488,1488,1488,1488,1488,1488,1488,1488,1488,1488,1488,1488,1488,1485,1485,1485,1485,1488,1488,1488,1488,1488,1488,1492,1492,1492,1492,1492,1492,1488,1488,1485,1485,1485,1485,1485,1485,1482,1482,1482,1482,1479,1479,1479,1479,1479,1479,1479,1475,1475,1475,1475,1475,1475,1475,1475,1475,1479,1479,1479,1479,1479,1479,1479,1479,1482,1482,1482,1482,1482,1482,1482,1482,1482,1485,1485,1485,1485,1485,1485,1488,1492,1492,1492,1495,1495,1495,1495,1495,1498,1498,1498,1498,1498,1498,1498,1495,1495,1495,1495,1495,1495,1495,1495,1495,1495,1498,1502,1502,1498,1498,1498,1502,0,0,2206,2206,2273,2273,2273,2280,2280,2280,2296,2304,2304,2312,2328,2328,2336,2344,2344,2352,2360,2369,2369,2377,2377,2377,2377,2377,2377,2377,2377,2377,2377,2377,2377,2377,2377
1482,1482,1482,1482,1485,1485,1485,1485,1485,1485,1488,1488,1488,1488,1488,1492,1492,1492,1492,1492,1492,1488,1488,1488,1485,1485,1485,1485,1485,1485,1485,1485,1485,1485,1482,1482,1482,1479,1479,1479,1475,1475,1475,1475,1475,1475,1475,1475,1479,1479,1479,1482,1482,1482,1485,1485,1485,1485,1488,1485,1485,1485,1485,1485,1485,1485,1485,1485,1485,1485,1485,1485,1482,1482,1482,1482,1479,1479,1479,1475,1472,1472,1472,1469,1469,1469,1469,1469,1469,1469,1469,1469,1469,1472,1472,1472,1475,1475,1475,1479,1479,1479,1482,1482,1482,1485,1485,1485,1485,1488,1488,1485,1485,1485,1485,1482,1482,1482,1482,1482,1482,1482,1485,1485,1485,1485,1488,1488,1485,1485,1485,1485,1485,1485,1482,1482,1482,1479,1479,1475,1472,1472,1472,1469,1469,1469,1466,1466,1466,1462,1459,1459,1459,1459,1459,1459,1459,1462,1462,1469,1472,1475,1475,1479,1479,1479,1482,1485,1482,1482,1482,1482,1482,1482,1482,1479,1479,1479,1475,1475,1475,1472,1472,1472,1469,1469,1469,1469,1469,1469,1469,1469,1469,1469,1469,1469,1469,1469,1469,1472,1469,1469,1469,1469,1469,1469,1469,1466,1466,1466,1466,1466,1466,1466,1466,1469,1469,1472,1475,1475,1475,1479,1479,1479,1479,1479,1479,1472,1472,1469,1466,1466,1462,1462,1462,1462,1462,1462,1462,1462,1462,1466,1466,1466,1466,1466,1469,1469,1469,1472,1472,1472,1472,1472,1472,1472,1472,1475,1475,1472,1472,1472,1469,1469,1469,1466,1466,1466,1469,1469,1469,1472,1472,1475,1475,1475,1479,1479,1482,1482,1482,1485,1485,1485,1485,1485,1482,1482,1482,1482,1479,1479,1479,1475,1475,1475,1475,1475,1475,1475,1475,1479,1479,1482,1482,1485,1482,1482,1485,1485,1485,1485,1482,1482,1482,1479,1479,1479,1475,1472,1472,1469,1466,1462,1462,1456,1450,1450,1444,1441,1441,1437,1434,1434,1428,1425,1425,1419,1419,1419,1419,1419,1422,1422,1428,1431,1437,1437,1444,1453,1453,1462,1469,1469,1475,1479,1482,1482,1482,1485,1482,1482,1482,1482,1482,1482,1482,1485,1485,1485,1485,1485,1485,1485,1485,1485,1482,1482,1482,1482,1482,1482,1482,1482,1482,1482,1482,1482,1485,1485,1485,1488,1488,1488,1488,1488,1488,1492,1492,1492,1492,1492,1492,1492,1492,1488,1488,1488,1488,1485,1485,1485,1485,1485,1485,1485,1485,1485,1485,1485,1485,1485,1485,1485,1485,1482,1482,1482,1479,1479,1479,1482,1482,1482,1482,1482,1482,1482,1482,1482,1482,1482,1482,1482,1485,1485,1485,1485,1488,1488,1488,1488,1488,1488,1488,1488,1488,1485,1485,1485,1485,1485,1485,1485,1485,1482,1482,1485,1485,1488,1488,1488,1488,1488,1488,1488,1488,1492,1492,1488,1488,1485,1485,1485,1485,1485,1485,1485,1482,1482,1482,1479,1479,1479,1479,1479,1479,1479,1475,1475,1475,1475,1475,1475,1475,1479,1479,1479,1479,1479,1479,1479,1479,1479,1479,1482,1482,1482,1482,1482,1482,1482,1479,1479,1482,1482,1482,1482,1482,1482,1482,1485,1485,1488,1488,1488,1492,1492,1492,1495,1495,1495,1495,1492,1492,1492,1492,1492,1492,1492,1495,1492,1492,1492,1492,1495,1495,1495,1495,1495,1498,1498,1498,1502,1502,0,2296,2296,2296,2296,2296,2296,2296,2304,2312,2312,2320,2328,2328,2336,2344,2344,2352,2360,2369,2369,2377,2377,2377,2377,2377,2377,2377,2377,2377,2377,2377,2377,2377,2377
1482,1482,1482,1482,1485,1485,1485,1485,1485,1485,1485,1485,1485,1485,1485,1488,1488,1488,1488,1488,1488,1488,1485,1485,1485,1485,1485,1485,1485,1485,1485,1482,1482,1482,1482,1479,1479,1479,1475,1475,1475,1475,1475,1475,1475,1475,1475,1475,1475,1479,1479,1479,1482,1482,1485,1485,1485,1485,1485,1485,1482,1482,1482,1482,1482,1482,1482,1482,1482,1482,1482,1482,1482,1482,1482,1482,1479,1479,1479,1475,1472,1472,1472,1469,1469,1469,1469,1469,1469,1469,1469,1469,1469,1472,1472,1472,1475,1475,1475,1479,1479,1479,1482,1482,1482,1482,1485,1485,1485,1485,1485,1485,1485,1485,1482,1482,1482,1482,1482,1482,1482,1482,1482,1482,1485,1485,1485,1485,1485,1485,1485,1482,1482,1482,1479,1479,1479,1475,1475,1472,1472,1472,1469,1469,1466,1466,1466,1462,1462,1459,1459,1459,1456,1456,1456,1456,1456,1462,1462,1466,1469,1472,1472,1475,1479,1479,1482,1485,1482,1482,1482,1482,1482,1482,1482,1479,1479,1479,1475,1475,1475,1472,1472,1472,1469,1469,1469,1469,1469,1469,1469,1469,1469,1469,1469,1469,1469,1469,1469,1469,1469,1469,1469,1469,1469,1469,1469,1466,1466,1466,1466,1466,1466,1466,1466,1469,1469,1472,1475,1475,1475,1475,1475,1475,1475,1475,1472,1466,1466,1462,1459,1459,1456,1456,1456,1456,1456,1456,1456,1456,1456,1459,1459,1459,1459,1459,1466,1466,1466,1469,1469,1469,1469,1469,1469,1469,1469,1472,1469,1469,1469,1469,1466,1466,1466,1466,1466,1466,1469,1469,1469,1472,1472,1475,1475,1475,1479,1479,1482,1482,1482,1485,1485,1485,1485,1485,1482,1482,1482,1482,1479,1479,1479,1472,1472,1472,1472,1472,1472,1472,1472,1475,1475,1479,1479,1482,1479,1479,1482,1482,1482,1482,1482,1482,1482,1479,1479,1479,1475,1472,1472,1472,1469,1466,1466,1459,1453,1453,1447,1444,1444,1441,1437,1437,1431,1425,1425,1419,1419,1419,1419,1419,1419,1419,1425,1428,1431,1431,1441,1450,1450,1459,1466,1466,1472,1479,1482,1482,1482,1485,1482,1482,1482,1482,1482,1482,1482,1485,1485,1485,1485,1485,1485,1485,1485,1485,1482,1482,1482,1482,1482,1482,1482,1482,1482,1482,1482,1482,1482,1482,1482,1485,1485,1488,1488,1488,1488,1488,1488,1492,1492,1492,1488,1488,1488,1488,1485,1485,1485,1485,1485,1482,1482,1485,1485,1482,1482,1482,1482,1482,1482,1482,1482,1485,1485,1482,1482,1479,1479,1479,1479,1479,1479,1479,1479,1479,1479,1479,1482,1482,1482,1482,1482,1482,1482,1485,1482,1482,1485,1485,1485,1485,1485,1485,1488,1488,1488,1485,1485,1485,1485,1485,1485,1485,1485,1482,1482,1485,1485,1488,1488,1488,1488,1488,1488,1488,1488,1492,1492,1488,1488,1485,1485,1485,1485,1485,1485,1485,1482,1482,1482,1479,1479,1479,1479,1479,1479,1479,1475,1475,1475,1475,1475,1475,1475,1479,1479,1479,1479,1479,1479,1479,1482,1482,1482,1482,1482,1482,1482,1482,1482,1482,1479,1479,1479,1479,1479,1479,1479,1479,1482,1482,1482,1482,1485,1485,1485,1488,1488,1488,1488,1488,1488,1488,1488,1488,1488,1488,1488,1492,1495,1492,1492,1492,1492,1495,1495,1495,1495,1495,1498,1498,1498,1502,1502,0,0,2312,2312,2312,2312,2312,2312,2312,2320,2320,2320,2328,2328,2328,2336,2336,2336,2344,2352,2352,2352,2369,2369,2369,2369,2369,2369,2369,2369,2369,2369,2369,2369,2369
1482,1482,1482,1482,1482,1479,1479,1479,1479,1482,1482,1482,1482,1482,1485,1485,1485,1485,1485,1485,1485,1485,1485,1485,1485,1485,1485,1482,1482,1482,1482,1482,1482,1482,1479,1479,1479,1475,1475,1475,1475,1475,1475,1475,1475,1475,1475,1475,1475,1479,1479,1479,1482,1482,1485,1485,1485,1485,1485,1485,1482,1482,1482,1482,1482,1482,1482,1482,1482,1482,1482,1482,1482,1482,1482,1482,1479,1479,1479,1475,1472,1472,1472,1469,1469,1469,1469,1469,1469,1469,1469,1469,1469,1472,1472,1472,1475,1475,1475,1475,1479,1479,1479,1482,1482,1482,1482,1482,1482,1482,1482,1482,1482,1482,1482,1482,1482,1482,1482,1482,1482,1482,1482,1482,1482,1482,1482,1482,1482,1482,1482,1479,1479,1479,1475,1475,1475,1472,1472,1472,1472,1472,1469,1469,1466,1466,1466,1462,1462,1459,1459,1459,1456,1456,1456,1456,1456,1462,1462,1466,1469,1472,1472,1475,1479,1479,1482,1485,1482,1482,1482,1479,1479,1482,1482,1479,1475,1475,1475,1472,1472,1472,1472,1472,1469,1469,1469,1466,1466,1466,1466,1466,1466,1466,1466,1469,1469,1469,1469,1469,1469,1469,1469,1469,1469,1469,1469,1469,1466,1466,1466,1466,1466,1466,1469,1469,1469,1472,1472,1472,1475,1472,1472,1472,1469,1469,1466,1462,1462,1456,1453,1453,1450,1450,1456,1456,1456,1456,1456,1456,1456,1459,1459,1459,1459,1459,1466,1466,1466,1469,1469,1469,1469,1469,1469,1469,1469,1472,1469,1469,1469,1469,1466,1466,1466,1462,1462,1462,1466,1466,1466,1469,1472,1472,1472,1472,1475,1475,1479,1479,1479,1479,1482,1482,1479,1479,1479,1479,1479,1479,1475,1475,1475,1472,1469,1469,1469,1469,1469,1469,1469,1472,1472,1472,1475,1479,1479,1479,1479,1479,1479,1482,1482,1482,1482,1479,1479,1479,1479,1475,1472,1472,1469,1466,1466,1462,1456,1456,1450,1444,1444,1441,1437,1437,1431,1428,1428,1419,1419,1419,1419,1419,1419,1419,1425,1428,1431,1431,1441,1450,1450,1459,1466,1466,1472,1479,1482,1482,1482,1482,1482,1482,1482,1482,1482,1482,1482,1482,1482,1482,1482,1482,1482,1482,1482,1482,1482,1479,1479,1479,1479,1479,1479,1479,1479,1475,1475,1479,1479,1479,1482,1482,1482,1485,1485,1485,1485,1485,1485,1488,1488,1488,1485,1485,1485,1485,1482,1482,1482,1482,1482,1479,1479,1482,1482,1482,1482,1482,1482,1482,1482,1482,1482,1485,1485,1482,1482,1479,1479,1479,1479,1479,1479,1479,1479,1479,1479,1479,1482,1482,1482,1482,1482,1482,1482,1485,1482,1482,1485,1485,1485,1485,1485,1485,1485,1485,1485,1485,1485,1482,1482,1482,1482,1482,1482,1482,1482,1485,1485,1485,1485,1485,1485,1488,1488,1488,1488,1492,1492,1488,1488,1485,1485,1485,1485,1485,1485,1485,1482,1482,1482,1482,1479,1479,1479,1479,1479,1479,1479,1479,1475,1475,1475,1475,1479,1479,1479,1479,1479,1479,1479,1482,1482,1482,1482,1482,1482,1482,1482,1482,1482,1482,1479,1479,1479,1479,1479,1479,1479,1479,1482,1482,1482,1482,1485,1485,1485,1488,1488,1488,1488,1488,1488,1488,1488,1488,1488,1488,1488,1488,1488,1488,1492,1492,1492,1492,1492,1495,1495,1495,1498,1495,1495,1498,1498,0,0,2312,2312,2312,2312,2312,2312,2312,2320,2320,2320,2328,2328,2328,2336,2336,2336,2344,2352,2352,2352,2360,2360,2369,2369,2369,2369,2369,2369,2369,2369,2369,2369,2360
1482,1482,1479,1479,1479,1479,1479,1479,1479,1479,1479,1479,1482,1482,1482,1482,1485,1485,1485,1485,1485,1485,1485,1485,1485,1485,1485,1482,1482,1482,1482,1482,1482,1482,1479,1479,1479,1475,1475,1475,1475,1475,1475,1475,1475,1475,1475,1475,1475,1479,1479,1479,1479,1479,1482,1482,1482,1482,1482,1482,1482,1482,1482,1482,1482,1482,1482,1482,1482,1482,1479,1479,1479,1479,1479,1479,1475,1475,1475,1472,1472,1472,1472,1469,1469,1469,1469,1469,1469,1469,1469,1469,1469,1472,1472,1472,1475,1475,1475,1475,1475,1475,1479,1479,1479,1479,1479,1479,1479,1482,1482,1482,1482,1482,1482,1482,1482,1482,1482,1482,1482,1482,1482,1482,1482,1482,1482,1482,1482,1482,1482,1479,1479,1479,1475,1475,1475,1472,1472,1469,1469,1466,1466,1466,1462,1462,1462,1459,1459,1459,1456,1456,1453,1453,1456,1453,1453,1459,1459,1462,1466,1469,1469,1472,1479,1479,1479,1482,1482,1482,1482,1479,1479,1479,1482,1479,1475,1475,1472,1472,1472,1472,1469,1469,1469,1469,1469,1466,1466,1466,1466,1466,1466,1466,1466,1466,1466,1466,1469,1469,1466,1466,1469,1469,1469,1469,1469,1469,1466,1466,1466,1466,1466,1466,1469,1469,1469,1472,1472,1472,1475,1472,1472,1472,1469,1469,1466,1462,1462,1456,1453,1453,1450,1450,1450,1450,1450,1450,1450,1450,1453,1453,1453,1456,1459,1459,1459,1462,1462,1462,1469,1469,1469,1469,1469,1469,1466,1466,1466,1466,1466,1466,1462,1462,1462,1462,1462,1462,1462,1462,1462,1466,1466,1469,1469,1469,1472,1472,1475,1475,1475,1475,1475,1475,1472,1472,1472,1472,1472,1472,1472,1469,1469,1466,1466,1466,1466,1466,1466,1466,1469,1472,1472,1472,1475,1479,1479,1479,1479,1479,1479,1482,1482,1482,1482,1482,1479,1479,1479,1475,1475,1475,1472,1469,1469,1462,1456,1456,1450,1444,1444,1441,1437,1437,1431,1428,1428,1419,1419,1419,1419,1419,1419,1419,1422,1425,1428,1428,1434,1444,1444,1453,1462,1462,1472,1475,1479,1479,1482,1482,1482,1482,1482,1482,1482,1482,1482,1479,1479,1479,1479,1479,1479,1479,1479,1479,1479,1479,1479,1479,1475,1475,1475,1475,1475,1475,1475,1475,1475,1475,1479,1482,1482,1482,1485,1485,1485,1485,1485,1488,1488,1488,1485,1485,1485,1485,1482,1482,1482,1482,1482,1479,1479,1482,1482,1482,1482,1482,1482,1482,1482,1482,1482,1482,1482,1482,1482,1479,1479,1479,1479,1479,1479,1479,1479,1479,1479,1479,1479,1479,1479,1479,1479,1479,1482,1482,1482,1482,1482,1482,1482,1482,1482,1482,1482,1485,1482,1482,1482,1482,1482,1482,1482,1482,1482,1482,1482,1482,1482,1485,1485,1485,1485,1488,1488,1488,1488,1492,1492,1488,1488,1485,1485,1485,1485,1485,1485,1485,1482,1482,1482,1482,1479,1479,1479,1479,1479,1479,1479,1479,1479,1479,1479,1479,1479,1479,1479,1479,1479,1479,1479,1482,1482,1482,1482,1482,1482,1482,1482,1482,1479,1479,1479,1479,1479,1479,1475,1475,1475,1475,1475,1479,1479,1479,1482,1482,1482,1482,1485,1485,1488,1488,1488,1488,1488,1485,1485,1485,1485,1485,1485,1485,1488,1488,1488,1488,1488,1488,1488,1495,1495,1495,1495,1495,1495,0,0,2336,2336,2336,2336,2336,2336,2336,2336,2336,2336,2336,2336,2336,2336,2344,2344,2344,2352,2352,2352,2360,2360,2369,2369,2369,2369,2369,2369,2369,2369,2369,2369,2360
1482,1482,1479,1479,1479,1479,1479,1479,1479,1479,1479,1479,1482,1482,1482,1482,1485,1485,1485,1485,1485,1485,1485,1485,1485,1482,1482,1482,1482,1482,1482,1482,1479,1479,1479,1479,1479,1475,1475,1475,1475,1475,1475,1475,1475,1475,1475,1475,1475,1475,1475,1479,1479,1479,1482,1482,1482,1482,1482,1482,1482,1482,1482,1482,1482,1482,1482,1482,1482,1479,1479,1479,1479,1479,1479,1475,1475,1472,1472,1472,1472,1472,1472,1469,1469,1469,1469,1469,1469,1469,1469,1469,1472,1472,1472,1472,1475,1475,1475,1475,1475,1475,1479,1479,1479,1479,1479,1479,1479,1482,1482,1482,1482,1482,1479,1479,1479,1479,1479,1479,1479,1479,1479,1479,1479,1479,1479,1479,1479,1479,1479,1475,1475,1475,1472,1472,1472,1469,1469,1469,1466,1466,1466,1462,1462,1462,1459,1459,1459,1453,1453,1453,1450,1450,0,1453,1453,1453,1453,1456,1462,1466,1466,1472,1475,1475,1479,1482,1482,1482,1482,1479,1479,1479,1482,1479,1475,1475,1472,1472,1472,1472,1469,1469,1469,1469,1469,1466,1466,1466,1466,1466,1466,1466,1466,1466,1466,1466,1469,1469,1466,1466,1469,1469,1469,1466,1466,1466,1466,1466,1466,1466,1466,1466,1466,1469,1469,1472,1472,1472,1472,1472,1472,1469,1466,1466,1462,1456,1456,1453,1447,1447,1447,1444,1444,1444,1444,1444,1444,1447,1447,1450,1450,1453,1453,1453,1456,1459,1459,1459,1462,1462,1466,1466,1466,1466,1466,1466,1466,1462,1462,1462,1459,1459,1459,1459,1459,1459,1459,1459,1459,1466,1466,1469,1469,1469,1472,1472,1475,1475,1475,1475,1475,1475,1472,1472,1472,1472,1472,1472,1472,1469,1469,1466,1466,1466,1466,1466,1466,1466,1469,1469,1469,1472,1472,1475,1475,1475,1475,1475,1475,1479,1479,1482,1482,1482,1479,1479,1479,1475,1475,1475,1472,1469,1469,1462,1456,1456,1453,1447,1447,1444,1441,1441,1434,1428,1428,1422,1419,1419,1416,1416,1419,1419,1419,1422,1425,1425,1431,1441,1441,1450,1462,1462,1469,1475,1479,1479,1479,1479,1479,1479,1479,1479,1479,1482,1482,1479,1479,1479,1479,1479,1479,1479,1479,1479,1479,1479,1479,1479,1475,1475,1475,1475,1475,1475,1475,1475,1475,1475,1479,1482,1482,1482,1482,1482,1482,1485,1485,1485,1482,1482,1482,1482,1482,1482,1482,1482,1479,1479,1479,1479,1479,1479,1479,1479,1479,1479,1479,1479,1482,1482,1482,1482,1482,1482,1482,1479,1479,1479,1479,1479,1479,1479,1475,1475,1475,1475,1475,1475,1475,1475,1479,1479,1479,1479,1479,1479,1482,1482,1482,1482,1482,1482,1482,1482,1482,1482,1482,1482,1482,1482,1482,1482,1482,1482,1482,1482,1482,1485,1485,1488,1488,1488,1488,1488,1492,1492,1492,1492,1492,1485,1485,1485,1485,1485,1485,1485,1482,1482,1482,1479,1479,1479,1479,1479,1479,1479,1475,1475,1475,1475,1475,1475,1475,1475,1479,1479,1479,1479,1479,1479,1479,1479,1479,1479,1479,1479,1479,1479,1479,1475,1475,1475,1475,1475,1475,1472,1472,1472,1472,1475,1475,1475,1479,1479,1482,1482,1482,1482,1485,1485,1485,1485,1485,1485,1482,1482,1482,1485,1485,1485,1485,1485,1488,1488,1488,1488,1488,1495,1495,1495,1495,1495,1495,0,0,2369,2369,2360,2360,2360,2360,2360,2360,2352,2352,2352,2352,2352,2344,2344,2344,2344,2352,2352,2352,2360,2360,2360,2369,2369,2369,2369,2360,2360,2360,2360,2360,2360
1479,1479,1479,1475,1475,1475,1475,1475,1475,1479,1479,1479,1479,1479,1482,1482,1482,1485,1485,1485,1485,1485,1485,1485,1485,1482,1482,1482,1482,1479,1479,1479,1479,1479,1479,1475,1475,1475,1475,1475,1475,1475,1475,1475,1475,1475,1475,1475,1475,1475,1475,1479,1479,1479,1482,1482,1482,1482,1482,1482,1482,1482,1482,1482,1482,1482,1482,1482,1482,1479,1479,1479,1479,1479,1479,1475,1475,1472,1472,1472,1472,1472,1472,1469,1469,1469,1469,1469,1469,1469,1469,1469,1472,1472,1472,1472,1472,1475,1475,1475,1475,1475,1475,1479,1479,1479,1479,1479,1479,1479,1479,1479,1479,1479,1479,1479,1479,1475,1475,1475,1475,1475,1475,1475,1475,1475,1475,1475,1475,1475,1472,1472,1472,1472,1469,1469,1469,1466,1466,1466,1462,1462,1462,1459,1459,1462,1459,1459,1459,1453,1453,1453,1450,1450,0,0,1453,1453,1453,1456,1462,1466,1466,1472,1475,1475,1479,1482,1482,1482,1482,1479,1479,1479,1482,1479,1475,1475,1472,1472,1472,1472,1469,1469,1469,1469,1469,1466,1466,1466,1466,1466,1466,1466,1466,1466,1466,1466,1466,1466,1466,1466,1469,1469,1466,1466,1466,1466,1466,1466,1466,1466,1466,1466,1466,1466,1466,1472,1472,1472,1472,1469,1469,1466,1462,1462,1459,1453,1453,1447,1444,1444,1441,1437,1437,1437,1437,1441,1441,1441,1447,1450,1450,1453,1453,1453,1456,1459,1459,1459,1462,1462,1466,1466,1466,1466,1466,1466,1466,1462,1462,1462,1459,1459,1459,1459,1459,1459,1459,1459,1459,1462,1462,1466,1466,1466,1469,1469,1469,1469,1469,1469,1469,1466,1466,1469,1466,1466,1469,1469,1466,1466,1466,1462,1462,1462,1462,1462,1462,1462,1466,1466,1466,1466,1469,1469,1469,1472,1472,1472,1475,1475,1475,1479,1479,1479,1479,1479,1479,1479,1475,1475,1472,1469,1469,1462,1456,1456,1453,1450,1450,1447,1441,1441,1434,1428,1428,1422,1419,1419,1416,1416,1419,1419,1419,1422,1425,1425,1431,1441,1441,1450,1462,1469,1469,1475,1479,1479,1479,1479,1479,1479,1479,1479,1479,1482,1482,1479,1479,1479,1479,1479,1479,1479,1479,1479,1479,1475,1475,1475,1475,1475,1472,1472,1475,1475,1475,1475,1475,1475,1475,1479,1479,1479,1482,1479,1479,1482,1482,1482,1482,1482,1482,1479,1479,1479,1479,1479,1479,1475,1475,1475,1475,1475,1475,1475,1479,1479,1479,1479,1479,1479,1482,1482,1482,1482,1482,1479,1479,1479,1479,1479,1479,1479,1475,1475,1475,1475,1475,1475,1475,1475,1479,1479,1479,1479,1479,1479,1482,1482,1482,1482,1482,1482,1482,1482,1482,1482,1482,1482,1482,1482,1482,1479,1479,1479,1479,1482,1482,1485,1485,1485,1485,1485,1488,1488,1488,1488,1488,1488,1488,1485,1485,1485,1485,1485,1482,1482,1482,1479,1479,1479,1479,1479,1479,1479,1479,1475,1475,1475,1475,1475,1475,1475,1475,1475,1475,1475,1475,1475,1475,1479,1479,1479,1479,1479,1479,1475,1475,1475,1475,1472,1472,1472,1475,1475,1475,1472,1472,1472,1472,1475,1475,1475,1479,1479,1482,1482,1482,1482,1485,1485,1485,1485,1485,1485,1482,1482,1482,1485,1485,1485,1485,1485,1485,1485,1488,1488,1488,1488,1488,1488,1492,1492,1492,0,0,2369,2369,2360,2360,2360,2360,2360,2360,2352,2352,2352,2352,2352,2352,2352,2352,2352,2352,2352,2360,2360,2360,2360,2369,2369,2369,2369,2360,2360,2360,2360,2360,2360
1479,1479,1475,1475,1475,1475,1475,1475,1475,1475,1479,1479,1479,1479,1482,1482,1482,1485,1485,1485,1485,1485,1485,1485,1485,1482,1482,1482,1482,1479,1479,1479,1479,1479,1479,1475,1475,1475,1475,1475,1475,1475,1475,1475,1475,1475,1475,1475,1475,1475,1475,1479,1479,1479,1479,1482,1482,1482,1482,1482,1479,1479,1479,1479,1479,1479,1479,1479,1479,1479,1479,1479,1475,1475,1475,1475,1475,1472,1472,1472,1472,1472,1472,1469,1469,1469,1469,1469,1469,1469,1469,1469,1469,1472,1472,1472,1472,1472,1472,1475,1475,1475,1475,1475,1475,1475,1475,1475,1475,1475,1475,1475,1475,1475,1475,1475,1479,1475,1475,1475,1475,1475,1475,1475,1475,1475,1475,1475,1475,1475,1472,1472,1472,1472,1469,1469,1469,1466,1466,1466,1462,1462,1462,1459,1459,1459,1456,1456,1456,1453,1450,1450,1447,1447,0,0,1450,1450,1450,1453,1459,1462,1462,1469,1475,1475,1475,1479,1479,1479,1479,1479,1479,1479,1482,1479,1479,1479,1475,1472,1472,1472,1469,1469,1469,1469,1469,1469,1466,1466,1466,1466,1466,1466,1466,1466,1466,1466,1466,1466,1466,1466,1469,1469,1466,1466,1466,1466,1466,1466,1466,1466,1466,1466,1466,1466,1466,1472,1472,1472,1472,1469,1469,1466,1462,1462,1459,1453,1453,1447,1444,1444,1441,1437,1437,1437,1437,1441,1441,1441,1444,1447,1447,1447,1450,1450,1453,1456,1456,1459,1459,1459,1459,1462,1462,1462,1462,1462,1462,1462,1462,1462,1459,1459,1459,1456,1456,1456,1456,1459,1459,1459,1459,1462,1462,1462,1462,1462,1462,1466,1462,1462,1462,1459,1459,1459,1459,1459,1459,1459,1459,1459,1459,1459,1459,1459,1459,1459,1459,1459,1459,1459,1459,1462,1462,1469,1469,1472,1472,1472,1475,1475,1475,1479,1479,1479,1479,1479,1479,1479,1479,1479,1472,1469,1469,1462,1459,1459,1453,1450,1450,1447,1441,1441,1434,1428,1428,1422,1419,1419,1416,1416,1416,1419,1419,1419,1422,1422,1428,1437,1437,1447,1459,1466,1466,1472,1479,1479,1479,1479,1479,1479,1479,1479,1479,1479,1482,1479,1479,1479,1479,1479,1479,1479,1479,1479,1475,1475,1475,1475,1475,1475,1472,1472,1472,1472,1472,1472,1475,1475,1475,1475,1475,1475,1479,1479,1479,1479,1479,1479,1482,1482,1482,1479,1479,1479,1479,1479,1479,1475,1475,1475,1475,1475,1475,1475,1479,1479,1479,1479,1479,1479,1482,1482,1482,1482,1482,1479,1479,1479,1479,1479,1479,1475,1475,1475,1475,1475,1475,1475,1475,1475,1475,1475,1475,1479,1479,1479,1479,1479,1479,1482,1482,1482,1482,1482,1482,1482,1482,1482,1482,1482,1479,1479,1479,1479,1479,1479,1482,1482,1485,1485,1485,1485,1485,1485,1485,1488,1488,1488,1488,1482,1482,1482,1482,1482,1482,1482,1479,1479,1479,1475,1475,1475,1475,1479,1479,1475,1475,1475,1475,1475,1475,1475,1475,1475,1475,1475,1475,1475,1475,1479,1479,1479,1479,1479,1479,1475,1475,1475,1475,1472,1472,1472,1475,1475,1472,1472,1472,1472,1472,1472,1472,1475,1475,1475,1479,1479,1482,1482,1482,1482,1482,1485,1485,1482,1482,1482,1482,1482,1482,1482,1482,1482,1485,1485,1485,1488,1488,1488,1488,1488,1488,1492,1492,0,0,2403,2403,2394,2394,2394,2386,2386,2386,2377,2377,2369,2369,2369,2369,2369,2369,2369,2369,2369,2369,2369,2369,2369,2377,2369,2369,2369,2369,2360,2360,2360,2360,2360
1479,1479,1475,1475,1475,1475,1475,1475,1475,1475,1479,1479,1479,1479,1482,1482,1482,1485,1485,1485,1485,1485,1485,1485,1482,1482,1482,1482,1479,1479,1479,1479,1479,1479,1479,1475,1475,1475,1475,1475,1475,1475,1475,1475,1475,1475,1475,1475,1475,1475,1475,1479,1479,1479,1479,1479,1479,1479,1479,1479,1479,1479,1479,1479,1479,1479,1475,1475,1475,1475,1475,1475,1475,1475,1475,1475,1472,1472,1472,1469,1469,1469,1469,1469,1469,1469,1469,1469,1469,1469,1469,1469,1469,1472,1472,1472,1472,1472,1472,1475,1475,1475,1475,1475,1475,1475,1475,1475,1475,1475,1475,1475,1475,1475,1475,1475,1475,1472,1472,1472,1472,1472,1472,1472,1469,1469,1469,1469,1469,1469,1469,1469,1469,1466,1466,1466,1466,1462,1462,1462,1459,1459,1459,1459,1459,1459,1456,1453,1453,1450,1447,1447,1444,1444,0,0,1447,1447,1450,1450,1456,1462,1462,1466,1472,1472,1475,1479,1479,1479,1479,1479,1479,1479,1482,1479,1479,1479,1475,1472,1472,1472,1469,1469,1469,1469,1469,1469,1469,1469,1469,1466,1466,1469,1469,1466,1466,1466,1469,1469,1469,1469,1469,1469,1469,1469,1469,1469,1466,1466,1466,1466,1466,1466,1466,1466,1466,1469,1469,1469,1469,1469,1469,1466,1462,1462,1456,1450,1450,1447,1441,1441,1437,1437,1437,1437,1437,1437,1437,1437,1441,1441,1441,1447,1447,1447,1453,1453,1453,1456,1459,1459,1459,1459,1462,1462,1462,1462,1462,1462,1462,1459,1459,1459,1456,1456,1456,1456,1456,1456,1456,1456,1459,1459,1459,1459,1462,1462,1462,1466,1462,1462,1462,1459,1459,1459,1459,1459,1459,1459,1459,1459,1459,1459,1459,1459,1459,1459,1459,1459,1459,1459,1459,1462,1462,1466,1466,1466,1469,1469,1472,1472,1472,1475,1479,1479,1479,1479,1479,1479,1475,1475,1472,1469,1469,1462,1459,1459,1453,1450,1450,1447,1444,1444,1434,1431,1431,1425,1419,1419,1416,1416,1416,1419,1419,1419,1422,1422,1425,1431,1431,1444,1456,1462,1462,1469,1475,1475,1475,1479,1475,1475,1479,1479,1479,1479,1479,1475,1475,1475,1475,1479,1479,1479,1479,1479,1475,1475,1475,1475,1475,1475,1472,1472,1472,1472,1472,1472,1475,1475,1475,1475,1475,1475,1479,1479,1479,1479,1479,1479,1475,1475,1475,1475,1475,1475,1475,1475,1475,1475,1475,1472,1472,1475,1475,1475,1475,1479,1479,1479,1479,1479,1479,1482,1482,1482,1482,1479,1479,1479,1479,1479,1479,1475,1475,1475,1475,1475,1475,1475,1475,1475,1475,1475,1475,1475,1475,1479,1479,1479,1479,1479,1482,1482,1482,1482,1482,1482,1482,1482,1482,1482,1479,1479,1479,1479,1479,1479,1482,1482,1485,1485,1485,1485,1485,1485,1485,1488,1488,1488,1488,1482,1482,1482,1482,1482,1482,1482,1479,1479,1479,1475,1475,1475,1475,1475,1475,1475,1475,1475,1472,1472,1472,1472,1472,1472,1472,1472,1472,1472,1472,1475,1475,1475,1472,1472,1472,1472,1472,1472,1472,1472,1472,1472,1472,1472,1469,1469,1469,1469,1469,1472,1472,1472,1475,1475,1479,1479,1479,1479,1482,1482,1482,1485,1485,1482,1482,1482,1482,1482,1482,1482,1482,1482,1482,1482,1482,1485,1485,1485,1488,1488,1488,1492,1492,0,0,2420,2420,2420,2411,2411,2411,2403,2403,2403,2394,2386,2386,2386,2386,2386,2386,2377,2377,2377,2369,2369,2369,2369,2377,2369,2369,2369,2369,2360,2360,2360,2352,2352
1475,1475,1475,1472,1472,1472,1472,1475,1475,1475,1475,1475,1479,1479,1482,1482,1482,1485,1485,1485,1485,1485,1485,1485,1482,1482,1482,1482,1479,1479,1479,1479,1479,1479,1479,1475,1475,1475,1475,1475,1475,1475,1475,1475,1475,1475,1475,1475,1475,1475,1475,1475,1479,1479,1479,1479,1479,1479,1479,1479,1479,1479,1479,1479,1479,1479,1475,1475,1475,1475,1475,1475,1475,1475,1475,1475,1472,1472,1472,1469,1469,1469,1469,1469,1469,1469,1469,1469,1469,1469,1469,1469,1469,1469,1472,1472,1472,1472,1472,1472,1472,1472,1472,1472,1472,1472,1472,1472,1472,1472,1472,1472,1472,1472,1472,1469,1469,1469,1469,1469,1469,1466,1466,1466,1466,1466,1466,1466,1462,1462,1462,1462,1462,1462,1462,1462,1459,1459,1459,1459,1459,1459,1459,1459,1456,1456,1456,1453,1453,1447,1447,1447,1444,1444,0,0,1447,1447,1450,1450,1456,1462,1462,1466,1472,1472,1475,1479,1479,1479,1479,1482,1482,1482,1482,1479,1479,1479,1479,1472,1472,1472,1469,1469,1469,1469,1469,1469,1469,1469,1469,1466,1466,1469,1469,1466,1466,1466,1469,1469,1469,1469,1469,1469,1469,1469,1469,1469,1469,1469,1469,1466,1466,1466,1466,1469,1469,1469,1469,1469,1469,1466,1466,1462,1459,1459,1453,1450,1450,1444,1441,1441,1437,1437,1437,1434,1434,1437,1434,1434,1437,1441,1441,1444,1447,1447,1453,1453,1453,1456,1459,1459,1459,1459,1462,1462,1462,1462,1462,1462,1462,1459,1459,1459,1456,1456,1456,1456,1456,1456,1456,1456,1459,1459,1459,1459,1459,1459,1459,1459,1459,1456,1456,1453,1453,1453,1453,1453,1453,1456,1453,1453,1453,1453,1456,1456,1456,1456,1456,1456,1459,1459,1459,1459,1459,1462,1462,1462,1462,1462,1469,1469,1469,1472,1472,1472,1475,1475,1475,1475,1475,1475,1469,1466,1466,1462,1459,1459,1453,1450,1450,1447,1444,1444,1437,1431,1431,1425,1419,1419,1419,1416,1416,1419,1419,1419,1422,1422,1425,1431,1431,1444,1456,1462,1462,1469,1475,1475,1475,1479,1475,1475,1479,1479,1479,1479,1479,1475,1475,1475,1475,1475,1475,1475,1475,1475,1475,1475,1475,1475,1475,1475,1472,1472,1472,1472,1472,1472,1475,1475,1475,1475,1475,1475,1475,1475,1475,1475,1475,1475,1475,1475,1472,1472,1472,1472,1472,1472,1472,1472,1472,1472,1472,1472,1472,1475,1475,1475,1475,1479,1479,1479,1479,1479,1479,1479,1479,1479,1479,1479,1475,1475,1475,1475,1475,1475,1475,1475,1475,1475,1475,1475,1475,1475,1475,1475,1475,1479,1479,1479,1479,1479,1482,1482,1482,1482,1482,1482,1482,1482,1482,1482,1479,1479,1479,1479,1479,1479,1482,1482,1482,1482,1482,1485,1485,1482,1482,1485,1485,1485,1485,1482,1479,1479,1479,1479,1479,1479,1475,1475,1475,1472,1472,1472,1472,1472,1472,1472,1472,1472,1469,1469,1469,1469,1469,1469,1469,1469,1469,1469,1469,1469,1469,1469,1469,1469,1469,1469,1469,1469,1469,1469,1469,1469,1469,1469,1469,1469,1469,1469,1469,1472,1472,1472,1475,1475,1479,1479,1479,1479,1482,1485,1485,1485,1485,1485,1482,1482,1482,1482,1482,1482,1482,1482,1482,1482,1482,1485,1485,1485,1485,1485,1485,1488,1488,0,0,2420,2420,2420,2411,2411,2411,2403,2403,2403,2394,2386,2386,2386,2386,2386,2386,2377,2377,2377,2377,2377,2377,2377,2377,2369,2369,2360,2360,2352,2352,2352,2344,2344
