1465,1465,1465,1465,1465,1468,1468,1468,1472,1472,1472,1472,1472,1479,1479,1479,1482,1482,1482,1486,1486,1486,1486,1486,1486,1486,1486,1486,1486,1486,1486,1486,1486,1486,1482,1482,1482,1482,1482,1479,1479,1479,1479,1479,1479,1479,1479,1479,1479,1479,1479,1479,1479,1482,1482,1482,1482,1482,1486,1486,1486,1486,1486,1486,1486,1482,1482,1482,1479,1479,1475,1475,1475,1472,1472,1472,1468,1468,1468,1468,1468,1468,1468,1468,1468,1472,1472,1475,1475,1475,1475,1475,1475,1475,1475,1475,1475,1475,1475,1475,1475,1475,1475,1475,1475,1475,1475,1472,1472,1472,1472,1468,1468,1468,1468,1468,1468,1468,1468,1468,1468,1465,1465,1465,1465,1465,1461,1461,1461,1458,1458,1454,1454,1454,1451,1451,1447,1444,1444,1444,1444,1444,1440,1440,1440,1440,1444,1440,1440,1440,1440,1440,1440,1440,1444,1444,1444,1447,1447,1447,1447,1451,1454,1454,1454,1454,1454,1458,1458,1458,1461,1461,1461,1465,1465,1465,1465,1468,1472,1472,1472,1472,1472,1475,1475,1475,1475,1475,1475,1475,1475,1475,1475,1475,1475,1472,1472,1472,1472,1472,1472,1472,1472,1472,1472,1472,1472,1472,1472,1472,1472,1472,1472,1472,1472,1472,1472,1468,1468,1465,1465,1461,1458,1458,1454,1451,1451,1451,1451,1447,1447,1447,1444,1444,1444,1444,1444,1444,1440,1440,1440,1444,1444,1447,1451,1451,1451,1454,1454,1458,1458,1461,1465,1465,1465,1465,1465,1468,1468,1468,1468,1468,1465,1465,1461,1461,1458,1458,1458,1451,1451,1451,1447,1447,1444,1444,1444,1444,1444,1444,1444,1447,1447,1451,1451,1451,1454,1454,1454,1454,1454,1458,1461,1461,1465,1465,1465,1465,1465,1461,1461,1461,1461,1461,1461,1461,1461,1461,1461,1461,1461,1461,1461,1461,1461,1461,1461,1461,1461,1461,1458,1458,1458,1458,1458,1454,1454,1451,1451,1451,1451,1451,1451,1454,1458,1458,1458,1461,1461,1461,1461,1465,1468,1461,1458,1458,1451,1451,1444,1440,1440,1434,1434,1430,1427,1427,1424,1424,1424,1424,1427,1427,1430,1434,1434,1440,1444,1444,1447,1447,1451,1454,1454,1454,1454,1454,1458,1458,1454,1454,1447,1440,1440,1437,1437,1434,1430,1430,1430,1434,1434,1434,1440,1440,1444,1451,1451,1461,1468,1468,1472,1472,1472,1472,1472,1468,1468,1468,1468,1468,1468,1468,1468,1468,1472,1472,1475,1475,1475,1479,1479,1479,1482,1482,1482,1482,1482,1486,1486,1486,1486,1486,1486,1482,1482,1482,1482,1482,1479,1479,1479,1475,1472,1472,1472,1472,1468,1465,1465,1465,1465,1461,1461,1465,1465,1468,1472,1472,1472,1472,1472,1475,1475,1475,1475,1475,1479,1479,1479,1479,1479,1479,1479,1475,1475,1475,1475,1475,1472,1472,1472,1472,1472,1472,1472,1472,1472,1472,1472,1472,1472,1472,1472,1472,1472,1475,1475,1475,1479,1479,1479,1479,1479,1479,1479,1482,1486,1486,1486,1486,1486,1486,1486,1486,1486,1486,1482,1482,1482,1482,1482,1479,1479,1475,1475,1475,1472,1472,1468,1468,1468,1468,1468,1468,1472,1472,1472,1475,1482,1482,1490,1490,1493,1501,1501,1504,1508,1508,1508,1508,1504,1504,1504,1501,1501,1497,1497,1497,1497,1497,1493,1493,1493,1490,1490,1486,1486,1486,1486,1486,1482,1482,1482,1482,1482,1486,1486,1486,1486,1490,1490,1490,1490,1493,1493,2408,2408,2399,2389,2389,2389,2371,2371,2361,2361,2352,2343,2343,2334,2334
1465,1465,1465,1465,1465,1468,1468,1468,1472,1472,1472,1472,1472,1479,1479,1479,1482,1482,1482,1486,1486,1486,1486,1486,1486,1486,1486,1486,1486,1486,1486,1486,1486,1482,1482,1482,1479,1479,1479,1475,1475,1475,1475,1475,1475,1475,1475,1475,1475,1475,1479,1479,1479,1479,1479,1482,1482,1482,1482,1482,1482,1482,1482,1482,1482,1482,1482,1482,1479,1479,1475,1472,1472,1472,1468,1468,1468,1468,1468,1468,1468,1468,1468,1468,1468,1468,1468,1468,1472,1472,1472,1472,1472,1472,1472,1472,1472,1472,1472,1475,1475,1475,1475,1475,1475,1475,1475,1472,1472,1472,1472,1468,1468,1468,1468,1468,1468,1468,1468,1468,1468,1465,1465,1465,1465,1465,1461,1461,1461,1458,1458,1454,1454,1454,1451,1451,1447,1444,1444,1444,1444,1444,1440,1440,1440,1440,1444,1440,1440,1440,1440,1440,1440,1440,1444,1444,1444,1447,1447,1447,1447,1451,1454,1454,1454,1454,1454,1458,1458,1458,1461,1461,1461,1465,1465,1465,1465,1468,1472,1472,1472,1472,1472,1472,1472,1472,1472,1472,1472,1472,1472,1472,1472,1472,1472,1472,1472,1472,1472,1472,1472,1472,1472,1472,1472,1472,1472,1472,1472,1472,1472,1472,1472,1472,1472,1472,1472,1468,1468,1465,1465,1461,1458,1458,1454,1451,1451,1451,1451,1447,1447,1447,1444,1444,1444,1444,1444,1444,1440,1440,1440,1444,1444,1444,1447,1447,1451,1454,1454,1454,1454,1461,1461,1461,1465,1465,1465,1468,1468,1468,1468,1465,1465,1465,1461,1461,1458,1454,1454,1451,1451,1451,1447,1447,1444,1444,1444,1440,1440,1444,1444,1444,1444,1447,1451,1451,1454,1451,1451,1454,1454,1458,1461,1461,1465,1465,1465,1468,1465,1461,1461,1461,1461,1461,1461,1461,1461,1461,1461,1461,1461,1461,1461,1461,1461,1461,1461,1461,1461,1461,1461,1461,1461,1461,1461,1458,1458,1458,1458,1458,1458,1458,1461,1461,1461,1461,1461,1465,1465,1465,1465,1465,1468,1465,1458,1458,1451,1451,1444,1440,1440,1434,1434,1430,1427,1427,1424,1424,1424,1424,1427,1427,1430,1434,1434,1440,1444,1444,1447,1447,1451,1454,1454,1454,1454,1454,1458,1458,1454,1454,1447,1440,1440,1437,1437,1434,1430,1430,1430,1434,1434,1434,1440,1440,1444,1451,1451,1458,1465,1465,1468,1468,1468,1468,1468,1468,1468,1465,1465,1465,1465,1465,1465,1468,1472,1472,1475,1475,1475,1479,1479,1479,1482,1482,1482,1482,1482,1486,1486,1486,1486,1486,1486,1486,1482,1482,1482,1482,1482,1479,1479,1475,1472,1472,1472,1472,1468,1465,1465,1465,1465,1461,1461,1461,1461,1465,1465,1465,1465,1468,1468,1472,1468,1468,1472,1472,1472,1472,1472,1475,1475,1475,1475,1472,1472,1472,1472,1472,1472,1472,1472,1468,1468,1468,1468,1468,1468,1468,1468,1468,1468,1468,1472,1472,1472,1472,1472,1472,1472,1472,1475,1479,1479,1479,1479,1479,1482,1482,1482,1482,1482,1482,1482,1482,1482,1482,1482,1482,1482,1482,1482,1479,1479,1475,1475,1475,1472,1472,1468,1468,1468,1468,1468,1468,1472,1472,1472,1475,1482,1482,1490,1493,1493,1501,1501,1504,1508,1508,1508,1508,1504,1504,1504,1501,1501,1497,1497,1497,1493,1493,1493,1490,1490,1490,1490,1486,1486,1486,1482,1482,1482,1482,1482,1482,1482,1486,1486,1486,1486,1490,1490,1490,1490,1493,1493,2399,2399,2389,2380,2380,2371,2361,2361,2352,2352,2343,2334,2334,2334,2334
1465,1465,1465,1465,1465,1468,1468,1468,1472,1472,1472,1472,1472,1479,1479,1479,1482,1482,1482,1482,1482,1482,1482,1482,1482,1482,1482,1482,1482,1482,1482,1482,1482,1482,1479,1479,1475,1475,1475,1475,1475,1475,1472,1472,1472,1472,1472,1472,1472,1472,1475,1475,1475,1475,1475,1479,1479,1479,1479,1482,1482,1482,1482,1482,1482,1482,1482,1482,1479,1479,1475,1472,1472,1472,1468,1468,1468,1468,1468,1468,1468,1468,1468,1468,1468,1468,1468,1468,1472,1472,1472,1472,1472,1472,1472,1472,1472,1472,1472,1472,1472,1472,1472,1472,1472,1472,1472,1468,1468,1468,1468,1468,1468,1468,1468,1468,1465,1465,1465,1465,1465,1465,1465,1465,1465,1465,1461,1461,1461,1458,1458,1454,1454,1454,1451,1451,1447,1444,1444,1444,1444,1444,1444,1444,1444,1444,1444,1440,1440,1440,1440,1440,1440,1440,1444,1444,1447,1447,1447,1451,1451,1451,1454,1454,1458,1458,1458,1458,1458,1458,1461,1461,1465,1465,1465,1465,1465,1468,1472,1472,1472,1472,1472,1472,1472,1472,1472,1472,1472,1472,1472,1472,1472,1472,1472,1472,1472,1472,1472,1472,1472,1472,1472,1472,1472,1472,1472,1472,1472,1472,1472,1472,1472,1472,1472,1472,1468,1465,1465,1461,1461,1461,1454,1454,1454,1447,1447,1447,1447,1444,1444,1444,1440,1440,1440,1440,1440,1440,1440,1440,1440,1440,1440,1440,1444,1444,1447,1451,1451,1454,1454,1458,1458,1458,1461,1461,1461,1465,1465,1465,1465,1465,1461,1461,1458,1458,1458,1454,1454,1454,1451,1451,1447,1447,1444,1444,1444,1440,1440,1444,1444,1444,1444,1447,1454,1454,1454,1451,1451,1454,1454,1458,1461,1461,1465,1465,1465,1468,1465,1465,1465,1465,1465,1465,1461,1461,1461,1461,1461,1461,1461,1461,1461,1461,1461,1458,1458,1458,1458,1458,1461,1461,1461,1461,1461,1458,1458,1458,1458,1458,1458,1458,1461,1461,1461,1461,1461,1465,1465,1465,1465,1465,1468,1465,1458,1458,1451,1451,1444,1440,1440,1437,1434,1434,1427,1427,1427,1427,1427,1427,1430,1430,1434,1437,1437,1444,1444,1444,1451,1451,1451,1454,1454,1458,1458,1458,1458,1458,1454,1454,1451,1444,1444,1437,1437,1434,1434,1434,1434,1434,1434,1434,1440,1440,1444,1451,1451,1458,1465,1465,1468,1468,1468,1468,1468,1468,1468,1465,1465,1465,1465,1465,1465,1468,1468,1468,1468,1468,1475,1475,1475,1479,1479,1479,1482,1482,1482,1486,1486,1486,1486,1486,1486,1486,1482,1482,1482,1482,1482,1479,1479,1475,1472,1472,1472,1472,1468,1465,1465,1461,1461,1461,1458,1458,1458,1461,1461,1461,1461,1465,1465,1465,1465,1468,1468,1468,1468,1468,1468,1472,1472,1472,1472,1468,1468,1468,1468,1468,1468,1472,1472,1468,1468,1468,1468,1468,1468,1468,1468,1468,1468,1468,1472,1472,1472,1472,1472,1472,1472,1472,1475,1479,1479,1479,1479,1479,1482,1482,1482,1482,1482,1482,1482,1482,1482,1482,1482,1482,1479,1479,1479,1475,1475,1475,1472,1472,1468,1468,1468,1465,1465,1465,1465,1465,1468,1468,1468,1475,1479,1479,1486,1493,1493,1497,1497,1501,1504,1504,1504,1504,1504,1504,1501,1497,1497,1497,1497,1493,1493,1493,1490,1490,1490,1486,1486,1486,1482,1482,1482,1482,1482,1482,1482,1482,1482,1482,1482,1486,1486,1490,1490,1490,1493,1493,1493,2399,2399,2389,2380,2380,2371,2361,2361,2352,2352,2343,2334,2334,2334,2334
1465,1465,1465,1465,1465,1468,1468,1468,1472,1472,1472,1475,1475,1475,1479,1479,1479,1479,1479,1482,1482,1482,1482,1482,1482,1482,1482,1482,1482,1482,1482,1482,1482,1482,1479,1479,1475,1475,1475,1475,1475,1475,1472,1472,1472,1472,1472,1472,1472,1472,1475,1475,1475,1475,1475,1479,1479,1479,1479,1482,1482,1482,1482,1479,1479,1479,1479,1479,1475,1475,1475,1472,1472,1468,1465,1465,1465,1465,1465,1465,1465,1465,1465,1465,1465,1465,1465,1465,1468,1468,1472,1472,1472,1472,1472,1472,1472,1472,1472,1472,1472,1472,1472,1468,1468,1468,1468,1468,1468,1468,1468,1465,1465,1465,1465,1465,1465,1465,1465,1465,1465,1465,1465,1465,1465,1465,1461,1461,1461,1458,1458,1454,1454,1454,1451,1451,1447,1447,1447,1444,1444,1447,1444,1444,1444,1444,1444,1444,1444,1444,1444,1444,1444,1447,1447,1447,1451,1451,1451,1454,1454,1454,1454,1454,1458,1458,1458,1458,1458,1458,1461,1461,1465,1465,1465,1465,1465,1468,1468,1468,1468,1468,1468,1468,1468,1468,1468,1468,1472,1472,1472,1472,1472,1472,1472,1472,1472,1472,1472,1472,1472,1472,1472,1472,1472,1472,1472,1472,1472,1472,1472,1472,1472,1472,1472,1472,1468,1465,1465,1461,1461,1458,1454,1454,1451,1447,1447,1447,1447,1444,1444,1444,1440,1440,1440,1440,1440,1440,1440,1440,1440,1440,1440,1440,1444,1444,1447,1451,1451,1454,1458,1458,1458,1458,1461,1461,1461,1465,1465,1465,1465,1465,1461,1461,1458,1458,1458,1454,1454,1451,1447,1447,1447,1447,1444,1440,1440,1440,1440,1444,1444,1444,1444,1447,1454,1454,1454,1451,1451,1454,1454,1458,1461,1461,1465,1465,1465,1468,1465,1465,1465,1465,1465,1465,1461,1461,1461,1461,1461,1461,1461,1461,1461,1461,1461,1458,1458,1458,1458,1458,1461,1461,1461,1461,1461,1458,1458,1458,1458,1461,1461,1461,1461,1461,1465,1465,1465,1465,1465,1465,1465,1465,1468,1465,1458,1458,1451,1451,1444,1440,1440,1437,1437,1437,1434,1434,1430,1430,1430,1430,1434,1437,1437,1440,1440,1444,1447,1447,1451,1454,1454,1454,1454,1458,1458,1458,1458,1458,1454,1454,1451,1444,1444,1437,1437,1434,1434,1434,1434,1434,1434,1434,1437,1437,1444,1451,1451,1454,1461,1461,1465,1465,1465,1465,1465,1461,1461,1458,1458,1458,1458,1461,1461,1461,1461,1461,1468,1468,1468,1472,1472,1475,1479,1479,1479,1479,1482,1482,1482,1486,1486,1486,1486,1486,1486,1486,1486,1486,1482,1479,1479,1479,1475,1475,1472,1472,1468,1465,1465,1461,1461,1461,1458,1458,1458,1461,1461,1461,1461,1465,1465,1465,1465,1468,1468,1468,1468,1468,1468,1472,1472,1472,1472,1468,1468,1468,1468,1468,1468,1468,1468,1465,1465,1465,1465,1465,1465,1465,1465,1465,1465,1465,1468,1468,1468,1468,1472,1472,1472,1472,1472,1475,1475,1475,1479,1479,1479,1479,1479,1482,1482,1482,1482,1479,1479,1479,1479,1479,1475,1475,1475,1472,1472,1472,1468,1468,1468,1468,1465,1465,1465,1465,1465,1465,1465,1468,1468,1472,1475,1475,1482,1490,1490,1497,1497,1501,1504,1504,1504,1504,1504,1504,1501,1497,1497,1497,1497,1493,1493,1493,1490,1490,1490,1486,1486,1486,1482,1482,1482,1482,1482,1482,1482,1482,1482,1482,1482,1486,1490,1490,1490,1490,1493,1493,1493,2399,2380,2380,2371,2371,2361,2361,2361,2352,2352,2343,2334,2334,2334,2334
1465,1465,1465,1465,1465,1468,1468,1468,1472,1472,1472,1475,1475,1475,1479,1479,1479,1479,1479,1479,1479,1482,1482,1482,1482,1482,1482,1482,1482,1482,1482,1479,1479,1479,1475,1475,1475,1472,1472,1472,1472,1472,1472,1472,1472,1472,1472,1472,1472,1472,1472,1472,1472,1475,1475,1475,1475,1475,1479,1479,1479,1479,1479,1479,1479,1479,1475,1475,1472,1472,1472,1468,1468,1468,1461,1461,1461,1461,1461,1461,1461,1461,1461,1461,1461,1465,1465,1465,1468,1468,1472,1472,1472,1472,1472,1472,1472,1472,1472,1472,1472,1472,1472,1468,1468,1468,1468,1468,1468,1468,1468,1465,1465,1465,1465,1465,1465,1465,1465,1465,1465,1465,1465,1465,1461,1461,1461,1458,1458,1454,1454,1454,1451,1451,1451,1447,1447,1447,1447,1444,1444,1447,1444,1444,1444,1444,1444,1444,1444,1444,1444,1444,1444,1447,1447,1447,1451,1451,1451,1454,1454,1458,1458,1458,1458,1458,1458,1461,1461,1461,1465,1465,1465,1465,1465,1465,1465,1465,1468,1468,1468,1468,1468,1468,1468,1468,1468,1468,1468,1472,1472,1472,1472,1472,1472,1472,1472,1472,1472,1472,1472,1472,1475,1475,1472,1472,1472,1475,1475,1472,1472,1472,1472,1472,1472,1472,1468,1465,1465,1461,1461,1458,1454,1454,1451,1447,1447,1447,1447,1444,1440,1440,1440,1440,1440,1437,1437,1437,1437,1437,1437,1440,1440,1440,1444,1444,1447,1451,1451,1454,1458,1458,1458,1458,1458,1461,1461,1461,1461,1461,1461,1458,1458,1458,1458,1458,1454,1451,1451,1451,1447,1447,1444,1444,1444,1440,1440,1440,1440,1444,1444,1444,1444,1451,1454,1454,1454,1454,1454,1458,1458,1458,1465,1465,1468,1468,1468,1468,1468,1465,1465,1465,1468,1468,1465,1465,1461,1461,1461,1461,1461,1461,1461,1461,1461,1458,1458,1458,1458,1458,1461,1461,1461,1461,1461,1458,1458,1458,1458,1461,1461,1461,1461,1461,1465,1465,1465,1465,1465,1465,1465,1465,1465,1465,1458,1458,1451,1451,1444,1440,1440,1437,1437,1437,1434,1434,1430,1430,1430,1430,1434,1437,1437,1440,1440,1444,1447,1447,1451,1454,1454,1458,1458,1458,1458,1458,1458,1458,1454,1454,1451,1444,1444,1437,1437,1437,1434,1434,1434,1434,1434,1434,1437,1437,1440,1447,1447,1451,1461,1461,1465,1465,1465,1465,1465,1461,1461,1458,1458,1458,1458,1461,1461,1461,1461,1461,1468,1468,1468,1472,1472,1475,1479,1479,1479,1479,1482,1482,1482,1486,1486,1486,1486,1486,1486,1486,1486,1486,1482,1479,1479,1479,1475,1475,1472,1472,1468,1465,1465,1461,1458,1458,1454,1454,1454,1454,1454,1454,1454,1458,1458,1458,1458,1461,1461,1461,1461,1461,1465,1465,1465,1465,1465,1465,1465,1465,1465,1465,1465,1465,1465,1465,1465,1465,1465,1465,1465,1465,1465,1465,1465,1465,1465,1465,1465,1465,1468,1468,1468,1468,1472,1472,1472,1472,1479,1479,1479,1479,1479,1482,1482,1482,1482,1479,1479,1479,1479,1479,1475,1475,1475,1472,1472,1472,1468,1468,1468,1468,1465,1465,1465,1465,1465,1465,1465,1468,1468,1472,1475,1475,1482,1490,1490,1493,1493,1501,1501,1501,1501,1501,1501,1501,1497,1497,1497,1493,1493,1490,1490,1490,1490,1490,1490,1486,1486,1486,1482,1482,1482,1482,1482,1482,1482,1482,1482,1482,1482,1486,1490,1490,1490,1490,1493,1497,1497,1501,2380,2380,2361,2361,2361,2352,2352,2343,2343,2343,2334,2334,2325,2325
1465,1465,1465,1465,1465,1468,1468,1468,1472,1472,1472,1472,1472,1475,1479,1479,1479,1479,1479,1479,1479,1479,1479,1479,1479,1479,1479,1479,1479,1479,1479,1479,1479,1475,1475,1475,1472,1472,1472,1472,1472,1468,1468,1468,1468,1472,1472,1472,1472,1472,1472,1472,1472,1475,1475,1475,1475,1475,1479,1479,1479,1479,1479,1479,1479,1479,1475,1475,1472,1472,1472,1468,1468,1468,1461,1461,1461,1461,1461,1461,1461,1461,1461,1461,1461,1465,1465,1465,1465,1465,1468,1468,1468,1468,1468,1468,1468,1468,1472,1472,1472,1472,1468,1468,1468,1468,1468,1468,1468,1468,1465,1465,1465,1465,1465,1465,1465,1465,1465,1465,1465,1465,1465,1461,1461,1461,1458,1458,1458,1454,1454,1454,1451,1451,1451,1447,1447,1447,1447,1444,1444,1447,1447,1447,1447,1447,1447,1447,1447,1447,1447,1447,1447,1451,1451,1451,1454,1454,1454,1458,1458,1458,1458,1458,1461,1461,1461,1461,1461,1461,1465,1465,1465,1465,1465,1465,1465,1465,1468,1468,1468,1468,1468,1468,1468,1468,1468,1468,1468,1468,1468,1468,1468,1472,1472,1472,1472,1472,1472,1472,1472,1472,1475,1475,1472,1472,1472,1475,1472,1472,1472,1472,1472,1472,1472,1472,1468,1465,1465,1461,1461,1458,1454,1454,1451,1447,1447,1447,1447,1444,1440,1440,1440,1440,1440,1437,1437,1437,1437,1437,1437,1440,1440,1440,1444,1444,1447,1451,1451,1454,1454,1454,1458,1458,1458,1461,1461,1461,1461,1461,1461,1458,1458,1458,1458,1458,1454,1451,1451,1451,1451,1451,1444,1444,1444,1444,1444,1440,1440,1444,1444,1447,1447,1454,1458,1458,1461,1461,1461,1461,1461,1461,1465,1465,1468,1468,1468,1468,1468,1465,1465,1465,1468,1468,1465,1465,1461,1461,1461,1461,1461,1461,1461,1461,1461,1458,1458,1458,1458,1458,1458,1458,1458,1458,1458,1458,1458,1458,1458,1458,1458,1461,1461,1461,1465,1465,1465,1465,1465,1461,1461,1461,1465,1461,1458,1458,1451,1451,1447,1444,1444,1440,1437,1437,1434,1434,1434,1434,1434,1434,1437,1440,1440,1444,1444,1447,1451,1451,1451,1458,1458,1458,1458,1458,1458,1458,1458,1458,1458,1458,1451,1447,1447,1440,1440,1437,1434,1434,1434,1434,1437,1437,1437,1437,1440,1447,1447,1451,1458,1458,1461,1461,1461,1461,1461,1454,1454,1454,1454,1454,1454,1454,1454,1458,1458,1458,1461,1461,1465,1468,1468,1475,1475,1475,1479,1479,1479,1482,1482,1486,1486,1486,1486,1486,1486,1486,1486,1486,1486,1482,1482,1479,1475,1475,1472,1472,1468,1465,1465,1461,1458,1458,1451,1451,1451,1451,1451,1451,1451,1451,1451,1454,1454,1454,1461,1461,1461,1461,1465,1465,1465,1465,1465,1465,1465,1465,1465,1465,1465,1465,1465,1465,1465,1465,1465,1465,1465,1465,1465,1465,1465,1465,1465,1465,1465,1465,1468,1468,1468,1468,1472,1472,1472,1472,1475,1475,1475,1475,1475,1479,1479,1479,1475,1475,1475,1475,1475,1475,1472,1472,1468,1468,1468,1468,1465,1465,1461,1461,1461,1461,1461,1461,1461,1461,1461,1465,1465,1468,1472,1472,1479,1486,1486,1490,1490,1493,1497,1497,1497,1497,1497,1497,1497,1493,1493,1490,1490,1486,1486,1486,1486,1490,1490,1486,1486,1486,1482,1482,1482,1482,1482,1482,1486,1486,1486,1486,1486,1490,1493,1493,1493,1493,1493,1497,1497,1501,2380,2380,2361,2361,2361,2352,2352,2343,2343,2343,2334,2334,2325,2325
1465,1465,1465,1465,1465,1468,1468,1468,1472,1472,1472,1472,1472,1475,1479,1479,1479,1479,1479,1479,1479,1479,1479,1479,1479,1479,1479,1479,1479,1479,1479,1479,1479,1475,1475,1475,1472,1472,1472,1472,1472,1468,1468,1468,1468,1468,1468,1468,1468,1468,1468,1472,1472,1472,1472,1472,1475,1475,1475,1475,1475,1475,1479,1475,1475,1475,1472,1472,1472,1472,1468,1465,1465,1465,1461,1461,1461,1461,1458,1458,1458,1458,1458,1461,1461,1461,1461,1465,1465,1465,1465,1468,1468,1468,1468,1468,1468,1468,1468,1468,1468,1472,1468,1468,1468,1468,1468,1468,1468,1468,1465,1465,1465,1465,1465,1465,1465,1465,1465,1465,1465,1465,1465,1461,1461,1461,1458,1458,1458,1454,1454,1454,1451,1451,1451,1447,1447,1447,1447,1444,1444,1447,1447,1447,1447,1447,1447,1447,1447,1447,1447,1447,1447,1451,1451,1451,1454,1454,1454,1458,1458,1458,1458,1458,1461,1461,1461,1461,1461,1461,1465,1465,1465,1465,1465,1465,1465,1465,1465,1465,1468,1468,1468,1468,1465,1465,1465,1465,1468,1468,1468,1468,1468,1468,1468,1468,1472,1472,1472,1472,1472,1472,1472,1472,1472,1472,1472,1472,1472,1472,1472,1472,1472,1472,1472,1472,1468,1465,1465,1461,1461,1458,1454,1454,1451,1447,1447,1447,1447,1444,1440,1440,1440,1440,1440,1440,1440,1440,1437,1437,1437,1440,1440,1440,1444,1444,1447,1451,1451,1454,1454,1454,1458,1458,1458,1458,1458,1458,1458,1458,1458,1454,1454,1454,1454,1454,1454,1451,1451,1447,1447,1447,1444,1444,1444,1444,1444,1440,1440,1444,1444,1447,1447,1454,1458,1458,1461,1461,1461,1461,1461,1461,1465,1465,1468,1468,1468,1468,1468,1468,1468,1468,1468,1468,1468,1468,1465,1461,1461,1461,1461,1461,1461,1461,1458,1458,1458,1458,1458,1458,1458,1458,1458,1458,1458,1458,1458,1458,1458,1458,1458,1461,1461,1461,1465,1465,1465,1465,1465,1461,1461,1461,1465,1461,1458,1458,1451,1451,1447,1444,1444,1444,1440,1440,1440,1440,1437,1434,1434,1434,1437,1440,1440,1444,1444,1447,1451,1451,1451,1458,1458,1458,1458,1458,1458,1458,1458,1458,1458,1458,1451,1447,1447,1440,1440,1437,1434,1434,1434,1434,1437,1437,1437,1437,1440,1447,1447,1451,1454,1454,1458,1458,1458,1458,1454,1451,1451,1447,1447,1447,1447,1451,1451,1451,1454,1454,1461,1461,1465,1468,1468,1472,1475,1475,1479,1479,1479,1482,1482,1486,1486,1486,1486,1486,1486,1486,1486,1486,1486,1482,1482,1479,1479,1479,1472,1472,1468,1465,1465,1461,1458,1458,1451,1451,1451,1451,1451,1451,1451,1451,1451,1454,1454,1454,1454,1454,1458,1458,1458,1458,1458,1461,1461,1461,1461,1461,1465,1465,1465,1465,1465,1461,1461,1461,1461,1461,1461,1461,1461,1461,1461,1461,1465,1465,1465,1465,1465,1465,1465,1465,1468,1468,1468,1472,1472,1472,1472,1472,1472,1475,1475,1475,1472,1472,1472,1472,1468,1468,1468,1468,1465,1465,1465,1461,1461,1461,1461,1461,1461,1461,1461,1461,1461,1461,1461,1465,1465,1468,1472,1472,1479,1486,1486,1490,1490,1493,1497,1497,1497,1497,1497,1497,1497,1493,1493,1490,1490,1486,1486,1486,1486,1490,1490,1486,1486,1486,1482,1482,1482,1482,1482,1482,1486,1486,1486,1486,1486,1490,1493,1493,1493,1493,1493,1497,1497,1501,2371,2371,2361,2361,2352,2352,2352,2343,2343,2334,2325,2325,2325,2325
1465,1465,1465,1465,1465,1468,1468,1468,1468,1468,1472,1472,1472,1472,1475,1475,1475,1475,1475,1475,1475,1475,1479,1479,1479,1479,1479,1479,1479,1475,1475,1475,1475,1475,1472,1472,1472,1468,1468,1468,1468,1465,1465,1465,1465,1465,1465,1465,1468,1468,1468,1468,1468,1468,1472,1472,1472,1472,1472,1475,1475,1472,1472,1472,1472,1472,1472,1472,1468,1468,1468,1465,1465,1465,1461,1461,1461,1461,1458,1458,1458,1458,1458,1461,1461,1461,1461,1465,1465,1465,1465,1468,1468,1468,1468,1468,1468,1468,1468,1468,1468,1472,1468,1468,1468,1468,1468,1468,1468,1468,1465,1465,1465,1465,1465,1465,1465,1465,1465,1465,1465,1465,1465,1461,1461,1461,1458,1458,1458,1454,1454,1454,1451,1451,1451,1447,1447,1447,1447,1444,1444,1447,1447,1447,1447,1447,1447,1447,1447,1447,1447,1451,1454,1454,1454,1454,1458,1458,1458,1461,1461,1461,1461,1461,1461,1461,1461,1465,1465,1465,1465,1465,1465,1465,1465,1465,1465,1465,1465,1465,1468,1468,1468,1468,1465,1465,1465,1465,1468,1468,1468,1468,1468,1468,1468,1468,1472,1472,1472,1472,1472,1472,1472,1472,1472,1472,1472,1472,1472,1472,1472,1472,1472,1472,1468,1468,1465,1465,1465,1461,1461,1458,1454,1454,1451,1447,1447,1447,1447,1444,1440,1440,1440,1440,1440,1440,1440,1440,1437,1437,1437,1440,1440,1440,1444,1444,1447,1447,1447,1451,1454,1454,1454,1454,1454,1454,1454,1454,1454,1454,1454,1454,1451,1451,1451,1451,1451,1447,1447,1444,1444,1447,1444,1444,1444,1444,1444,1444,1444,1444,1444,1447,1447,1454,1458,1458,1461,1461,1461,1461,1461,1465,1465,1465,1468,1468,1468,1472,1468,1468,1468,1468,1468,1468,1468,1468,1465,1461,1461,1461,1461,1461,1461,1461,1458,1458,1458,1458,1458,1458,1458,1458,1458,1458,1458,1454,1454,1454,1454,1458,1458,1458,1458,1458,1461,1461,1461,1461,1461,1461,1461,1461,1461,1458,1458,1458,1451,1451,1447,1444,1444,1444,1440,1440,1440,1440,1437,1437,1437,1437,1440,1444,1444,1447,1447,1451,1451,1451,1454,1458,1458,1458,1458,1458,1461,1461,1458,1458,1458,1458,1451,1447,1447,1440,1440,1440,1437,1437,1437,1437,1437,1437,1440,1440,1440,1447,1447,1451,1454,1454,1458,1458,1458,1458,1454,1451,1451,1447,1447,1447,1447,1451,1451,1451,1454,1454,1461,1461,1465,1468,1468,1472,1475,1475,1479,1479,1479,1482,1482,1486,1486,1486,1486,1486,1486,1486,1486,1486,1486,1482,1482,1479,1479,1479,1472,1472,1468,1465,1465,1461,1454,1454,1451,1451,1451,1451,1451,1447,1447,1447,1447,1447,1447,1451,1451,1451,1454,1454,1454,1458,1458,1458,1458,1458,1458,1458,1458,1461,1461,1461,1461,1458,1458,1458,1458,1458,1458,1458,1461,1461,1461,1461,1465,1465,1465,1465,1465,1465,1465,1465,1468,1468,1468,1472,1472,1472,1472,1472,1472,1475,1475,1475,1472,1472,1472,1472,1468,1468,1468,1468,1465,1465,1465,1461,1461,1461,1461,1461,1458,1458,1458,1458,1458,1458,1458,1461,1461,1461,1468,1468,1475,1482,1482,1486,1486,1490,1490,1490,1493,1493,1490,1490,1490,1486,1486,1486,1486,1486,1486,1486,1486,1486,1486,1486,1486,1486,1486,1486,1482,1482,1486,1486,1486,1486,1490,1490,1490,1490,1497,1497,1497,1497,1501,1501,1501,1501,2361,2361,2352,2352,2352,2343,2343,2343,2343,2334,2325,2325,2325,2325
1465,1465,1465,1465,1465,1468,1468,1468,1468,1468,1468,1472,1472,1472,1472,1472,1472,1472,1472,1472,1472,1472,1472,1472,1475,1475,1475,1475,1475,1475,1475,1475,1475,1475,1472,1472,1472,1468,1468,1468,1468,1465,1465,1465,1465,1465,1465,1465,1468,1468,1468,1468,1468,1468,1472,1472,1472,1472,1472,1475,1475,1472,1472,1472,1472,1472,1472,1472,1468,1468,1465,1461,1461,1461,1458,1458,1458,1458,1458,1458,1458,1458,1458,1458,1458,1458,1458,1461,1465,1465,1465,1465,1465,1468,1468,1468,1468,1468,1468,1468,1468,1472,1468,1468,1468,1468,1468,1468,1468,1468,1468,1465,1465,1465,1465,1465,1465,1465,1465,1465,1465,1465,1465,1461,1461,1461,1461,1458,1458,1454,1454,1454,1454,1454,1451,1451,1451,1451,1451,1447,1447,1451,1451,1451,1451,1451,1451,1451,1451,1454,1454,1454,1458,1458,1458,1458,1461,1461,1461,1465,1465,1465,1465,1465,1465,1465,1465,1465,1465,1465,1465,1465,1465,1465,1465,1465,1465,1465,1465,1465,1465,1465,1465,1465,1465,1465,1465,1465,1465,1465,1465,1465,1465,1465,1468,1468,1468,1472,1472,1472,1472,1472,1472,1472,1472,1472,1472,1472,1472,1472,1472,1472,1468,1468,1468,1468,1465,1465,1465,1461,1458,1458,1458,1458,1451,1451,1451,1447,1447,1447,1444,1444,1444,1440,1440,1440,1440,1440,1440,1440,1440,1440,1440,1440,1444,1444,1447,1447,1447,1451,1454,1454,1454,1454,1454,1454,1454,1454,1454,1454,1454,1454,1451,1451,1451,1451,1451,1447,1447,1444,1444,1447,1444,1444,1444,1444,1444,1444,1444,1444,1444,1447,1447,1454,1458,1458,1461,1461,1461,1461,1461,1465,1465,1465,1468,1468,1468,1472,1468,1468,1468,1468,1468,1468,1468,1468,1465,1461,1461,1461,1461,1461,1461,1461,1458,1458,1458,1454,1454,1454,1454,1454,1454,1454,1454,1451,1451,1451,1451,1451,1451,1454,1454,1454,1458,1458,1458,1458,1458,1458,1458,1458,1458,1458,1458,1458,1451,1451,1451,1447,1447,1444,1444,1444,1444,1444,1444,1444,1444,1444,1444,1447,1447,1451,1451,1451,1454,1454,1458,1458,1458,1458,1458,1461,1461,1461,1458,1458,1458,1458,1454,1447,1447,1440,1440,1437,1437,1437,1437,1437,1437,1437,1440,1440,1440,1447,1447,1451,1454,1454,1454,1454,1454,1454,1451,1444,1444,1444,1444,1444,1444,1444,1444,1447,1451,1451,1458,1458,1461,1465,1465,1468,1475,1475,1475,1475,1479,1482,1482,1486,1486,1486,1486,1486,1486,1490,1490,1490,1490,1486,1486,1482,1479,1479,1475,1472,1472,1465,1465,1461,1454,1454,1451,1451,1451,1451,1451,1447,1447,1447,1447,1447,1447,1451,1451,1451,1454,1454,1454,1458,1458,1458,1458,1458,1458,1458,1458,1461,1461,1461,1461,1458,1458,1458,1458,1458,1458,1458,1461,1461,1461,1461,1461,1461,1461,1461,1465,1465,1465,1465,1465,1465,1465,1465,1468,1468,1468,1468,1472,1472,1472,1468,1468,1468,1468,1468,1465,1465,1465,1465,1461,1461,1461,1458,1458,1458,1458,1458,1454,1454,1454,1454,1454,1454,1454,1454,1454,1458,1465,1465,1468,1475,1475,1479,1479,1482,1486,1486,1486,1490,1490,1490,1486,1486,1486,1486,1486,1486,1486,1486,1486,1486,1486,1486,1486,1486,1486,1486,1486,1486,1490,1490,1490,1490,1490,1493,1493,1493,1497,1497,1501,1501,1501,1504,1504,1504,2361,2361,2352,2352,2352,2343,2343,2334,2334,2334,2325,2325,2317,2317
1465,1465,1465,1465,1465,1468,1468,1468,1468,1468,1468,1472,1472,1472,1472,1472,1472,1472,1472,1472,1472,1472,1472,1472,1475,1475,1475,1475,1475,1475,1475,1472,1472,1472,1472,1472,1468,1468,1468,1465,1465,1465,1465,1465,1465,1465,1465,1465,1465,1465,1465,1468,1468,1468,1468,1468,1472,1472,1472,1472,1472,1472,1472,1472,1472,1468,1468,1468,1465,1465,1465,1461,1461,1458,1458,1458,1458,1458,1458,1458,1458,1458,1458,1458,1458,1458,1458,1461,1461,1461,1465,1465,1465,1465,1465,1468,1468,1468,1468,1472,1472,1472,1472,1472,1472,1472,1472,1472,1472,1472,1472,1468,1468,1468,1468,1468,1468,1468,1468,1465,1465,1465,1465,1465,1461,1461,1461,1461,1461,1458,1458,1458,1458,1458,1451,1451,1451,1451,1451,1447,1447,1451,1451,1451,1451,1451,1451,1451,1451,1454,1454,1454,1458,1458,1458,1458,1461,1461,1461,1465,1465,1465,1465,1465,1465,1465,1465,1465,1465,1465,1465,1465,1465,1465,1465,1465,1465,1461,1461,1461,1461,1461,1461,1461,1461,1461,1461,1461,1461,1461,1461,1465,1465,1465,1465,1465,1468,1468,1468,1472,1472,1472,1472,1472,1472,1472,1472,1472,1472,1472,1472,1472,1468,1468,1468,1468,1465,1465,1465,1461,1458,1458,1458,1458,1454,1451,1451,1451,1451,1447,1444,1444,1444,1440,1440,1440,1440,1440,1440,1440,1440,1440,1440,1440,1444,1444,1444,1447,1447,1447,1451,1451,1451,1451,1451,1454,1451,1451,1451,1451,1451,1451,1451,1451,1447,1447,1451,1447,1447,1444,1444,1444,1444,1444,1444,1444,1444,1444,1444,1447,1447,1451,1451,1454,1461,1461,1461,1461,1461,1465,1465,1465,1468,1468,1468,1468,1468,1472,1468,1468,1468,1468,1468,1468,1468,1468,1465,1461,1461,1461,1461,1461,1461,1461,1458,1458,1458,1454,1454,1454,1454,1454,1454,1454,1454,1451,1451,1451,1451,1451,1451,1454,1454,1454,1458,1458,1458,1458,1458,1458,1458,1458,1458,1458,1454,1454,1451,1451,1451,1447,1447,1444,1444,1444,1444,1444,1444,1444,1444,1444,1444,1447,1447,1451,1451,1451,1454,1454,1458,1458,1458,1458,1458,1461,1461,1461,1458,1458,1458,1458,1454,1447,1447,1444,1440,1437,1437,1437,1437,1437,1437,1437,1440,1440,1444,1447,1447,1447,1451,1451,1454,1451,1451,1451,1447,1444,1444,1440,1440,1440,1440,1444,1444,1447,1451,1451,1458,1458,1461,1465,1465,1468,1475,1475,1475,1475,1479,1482,1482,1486,1486,1486,1486,1486,1490,1490,1490,1490,1490,1490,1490,1482,1482,1482,1475,1472,1472,1465,1465,1461,1454,1454,1451,1451,1447,1447,1447,1447,1447,1447,1447,1447,1447,1447,1447,1447,1451,1451,1451,1454,1454,1454,1458,1458,1458,1458,1458,1458,1458,1458,1458,1458,1458,1458,1458,1458,1458,1458,1458,1458,1458,1458,1458,1458,1458,1461,1461,1461,1461,1461,1465,1465,1465,1465,1465,1465,1465,1465,1468,1468,1468,1465,1465,1465,1465,1465,1465,1465,1465,1465,1461,1461,1461,1458,1458,1458,1458,1458,1454,1454,1454,1454,1454,1454,1454,1454,1454,1458,1465,1465,1468,1475,1475,1479,1479,1482,1486,1486,1486,1490,1490,1490,1486,1486,1486,1482,1482,1482,1482,1482,1482,1482,1486,1486,1486,1486,1486,1486,1486,1486,1490,1490,1490,1490,1490,1493,1493,1493,1497,1497,1501,1501,1501,1504,1504,1504,2361,2361,2352,2352,2343,2334,2334,2334,2334,2325,2317,2317,2308,2308
1465,1465,1465,1465,1465,1465,1465,1465,1465,1465,1465,1465,1465,1468,1468,1468,1468,1468,1468,1468,1468,1468,1472,1472,1472,1472,1472,1472,1472,1472,1472,1472,1472,1472,1468,1468,1465,1465,1465,1465,1465,1465,1461,1461,1461,1461,1461,1461,1461,1461,1465,1465,1465,1465,1468,1468,1468,1468,1472,1472,1472,1472,1472,1472,1472,1468,1468,1468,1465,1465,1465,1461,1461,1458,1458,1458,1458,1458,1458,1458,1458,1458,1458,1458,1458,1458,1458,1461,1461,1461,1465,1465,1465,1465,1465,1468,1468,1468,1468,1472,1472,1472,1472,1472,1472,1472,1472,1472,1472,1472,1472,1468,1468,1468,1468,1468,1468,1468,1468,1465,1465,1465,1465,1465,1461,1461,1461,1461,1461,1458,1458,1458,1458,1458,1454,1454,1454,1454,1454,1454,1454,1458,1458,1458,1458,1458,1458,1458,1458,1458,1458,1458,1461,1461,1465,1465,1465,1465,1465,1465,1465,1465,1465,1465,1465,1465,1465,1465,1465,1465,1465,1465,1465,1465,1465,1465,1465,1461,1461,1461,1461,1461,1461,1461,1461,1461,1461,1461,1461,1461,1461,1465,1465,1465,1465,1465,1468,1468,1468,1472,1472,1472,1472,1472,1472,1472,1472,1472,1472,1472,1472,1468,1468,1468,1465,1465,1465,1465,1465,1461,1458,1458,1458,1458,1454,1451,1451,1451,1451,1447,1444,1444,1444,1440,1440,1440,1440,1440,1440,1440,1440,1440,1440,1440,1440,1440,1444,1447,1447,1447,1447,1447,1447,1447,1447,1447,1447,1447,1447,1447,1447,1447,1447,1447,1447,1447,1451,1447,1447,1444,1444,1444,1444,1444,1444,1444,1444,1444,1444,1447,1447,1451,1451,1458,1461,1461,1465,1465,1465,1465,1465,1465,1468,1468,1472,1472,1472,1472,1472,1468,1468,1468,1468,1468,1468,1468,1465,1461,1461,1461,1461,1461,1458,1458,1454,1454,1454,1451,1451,1451,1451,1451,1451,1451,1451,1447,1447,1447,1447,1451,1451,1451,1451,1451,1451,1451,1451,1454,1454,1454,1454,1454,1454,1454,1454,1454,1451,1451,1451,1447,1447,1447,1447,1447,1447,1447,1447,1447,1447,1447,1451,1451,1451,1454,1454,1458,1458,1458,1458,1461,1461,1461,1461,1461,1461,1461,1461,1461,1458,1458,1454,1451,1451,1444,1440,1440,1437,1437,1437,1437,1437,1437,1440,1440,1444,1447,1447,1447,1451,1451,1454,1451,1451,1451,1447,1444,1444,1440,1440,1440,1440,1440,1440,1444,1447,1447,1454,1454,1458,1461,1461,1468,1472,1472,1475,1475,1479,1482,1482,1486,1486,1486,1486,1486,1486,1490,1490,1490,1490,1486,1486,1482,1479,1479,1475,1472,1472,1465,1465,1461,1458,1458,1451,1451,1447,1447,1447,1447,1447,1447,1447,1447,1447,1447,1447,1447,1447,1447,1447,1451,1451,1451,1454,1454,1454,1458,1458,1458,1458,1458,1458,1458,1458,1458,1458,1458,1458,1458,1458,1458,1458,1458,1458,1458,1458,1461,1461,1461,1461,1461,1465,1465,1465,1465,1465,1465,1465,1465,1468,1468,1468,1465,1465,1465,1465,1465,1461,1461,1458,1458,1458,1458,1458,1454,1454,1454,1451,1451,1451,1451,1451,1451,1451,1451,1451,1451,1451,1454,1458,1458,1465,1468,1468,1475,1475,1475,1479,1479,1482,1482,1482,1482,1482,1479,1479,1479,1479,1479,1479,1482,1482,1482,1482,1482,1482,1486,1486,1486,1486,1486,1490,1490,1490,1490,1493,1497,1497,1497,1501,1501,1504,1504,1508,1508,1508,1508,2361,2361,2352,2352,2343,2334,2334,2334,2334,2325,2317,2317,2308,2308
1465,1465,1465,1465,1465,1465,1465,1465,1465,1465,1465,1465,1465,1465,1465,1465,1465,1465,1468,1468,1468,1468,1472,1472,1472,1472,1472,1472,1472,1472,1472,1472,1472,1472,1468,1468,1465,1465,1465,1465,1465,1465,1461,1461,1461,1461,1461,1461,1461,1461,1465,1465,1465,1465,1468,1468,1468,1468,1468,1472,1472,1468,1468,1468,1468,1468,1465,1465,1465,1465,1461,1458,1458,1458,1458,1458,1454,1454,1454,1454,1454,1454,1454,1458,1458,1458,1458,1458,1461,1461,1465,1465,1465,1465,1465,1468,1468,1468,1472,1472,1472,1472,1472,1472,1472,1472,1472,1472,1472,1472,1472,1472,1472,1472,1472,1472,1472,1472,1472,1472,1472,1468,1465,1465,1465,1465,1465,1465,1465,1465,1465,1465,1461,1461,1461,1461,1461,1461,1461,1461,1461,1461,1461,1461,1461,1461,1461,1461,1461,1465,1465,1465,1465,1465,1465,1465,1465,1465,1465,1465,1465,1465,1465,1465,1465,1465,1465,1465,1465,1465,1465,1465,1465,1465,1465,1465,1465,1461,1461,1461,1461,1461,1461,1461,1461,1461,1461,1461,1461,1461,1461,1461,1461,1465,1465,1465,1465,1468,1468,1468,1468,1468,1472,1472,1468,1468,1468,1468,1468,1465,1465,1465,1465,1465,1465,1465,1461,1461,1461,1458,1458,1458,1454,1454,1454,1451,1451,1451,1451,1447,1447,1447,1444,1444,1444,1440,1440,1440,1440,1440,1440,1440,1440,1440,1440,1440,1444,1447,1447,1447,1447,1447,1447,1447,1447,1447,1447,1447,1447,1447,1447,1447,1447,1447,1447,1447,1447,1447,1447,1444,1444,1444,1444,1444,1444,1444,1444,1444,1444,1447,1447,1451,1451,1458,1461,1461,1465,1465,1465,1465,1465,1465,1468,1468,1468,1468,1468,1468,1468,1468,1468,1468,1468,1468,1468,1468,1465,1461,1461,1461,1458,1458,1454,1454,1454,1451,1451,1451,1451,1451,1447,1447,1447,1447,1447,1444,1444,1444,1444,1444,1444,1451,1451,1451,1451,1451,1451,1454,1454,1454,1454,1454,1454,1454,1454,1454,1451,1451,1451,1451,1451,1451,1451,1451,1451,1451,1451,1451,1451,1451,1454,1454,1454,1458,1458,1458,1458,1458,1461,1461,1461,1461,1461,1461,1461,1461,1461,1461,1458,1458,1454,1451,1451,1444,1440,1440,1437,1437,1437,1437,1437,1437,1440,1440,1444,1447,1447,1447,1451,1451,1451,1451,1451,1451,1444,1440,1440,1440,1440,1437,1437,1440,1440,1440,1447,1447,1451,1451,1458,1461,1461,1468,1468,1468,1475,1475,1475,1479,1479,1482,1486,1486,1486,1486,1486,1486,1486,1490,1490,1486,1486,1482,1479,1479,1475,1472,1472,1465,1465,1461,1458,1458,1451,1451,1447,1447,1447,1447,1447,1447,1447,1447,1447,1447,1447,1447,1447,1447,1447,1451,1451,1451,1454,1454,1454,1458,1458,1458,1458,1458,1458,1458,1458,1458,1458,1458,1458,1458,1458,1458,1458,1458,1458,1458,1458,1458,1458,1458,1461,1461,1461,1461,1461,1465,1465,1465,1465,1465,1465,1465,1465,1465,1465,1461,1461,1461,1458,1458,1458,1458,1454,1454,1454,1451,1451,1451,1451,1451,1451,1447,1447,1447,1447,1447,1447,1447,1447,1451,1454,1454,1461,1468,1468,1475,1475,1475,1479,1479,1482,1482,1482,1482,1482,1479,1479,1479,1479,1479,1479,1482,1482,1482,1482,1482,1482,1486,1486,1486,1486,1486,1490,1490,1493,1497,1497,1497,1497,1501,1501,1501,1504,1504,1508,1508,1508,1508,2361,2361,2343,2343,2343,2334,2334,2325,2325,2325,2317,2317,2308,2308
1465,1465,1465,1465,1465,1465,1465,1465,1465,1465,1465,1465,1465,1465,1465,1465,1465,1465,1465,1465,1465,1465,1465,1465,1465,1465,1465,1465,1465,1468,1468,1468,1468,1465,1465,1465,1465,1465,1465,1465,1465,1461,1461,1461,1458,1458,1461,1461,1461,1461,1461,1461,1461,1465,1465,1465,1468,1468,1468,1472,1472,1468,1468,1465,1465,1465,1465,1465,1461,1461,1461,1458,1458,1458,1454,1454,1454,1454,1454,1454,1454,1454,1454,1458,1458,1458,1458,1458,1461,1461,1465,1465,1465,1465,1465,1468,1472,1472,1472,1472,1472,1472,1472,1475,1475,1475,1475,1475,1475,1475,1475,1475,1475,1472,1472,1472,1472,1472,1472,1472,1472,1468,1465,1465,1465,1465,1465,1465,1465,1465,1465,1465,1461,1461,1461,1461,1461,1461,1461,1461,1461,1461,1461,1461,1461,1461,1461,1461,1461,1465,1465,1465,1465,1465,1465,1465,1465,1465,1465,1465,1465,1465,1465,1465,1465,1465,1465,1465,1465,1465,1465,1465,1465,1465,1465,1461,1461,1461,1461,1461,1461,1461,1458,1458,1458,1458,1458,1458,1461,1461,1461,1461,1461,1465,1465,1465,1465,1468,1468,1468,1468,1468,1472,1472,1468,1468,1468,1468,1468,1465,1465,1465,1465,1465,1465,1465,1461,1461,1461,1458,1458,1458,1454,1454,1454,1451,1451,1451,1451,1447,1447,1447,1444,1444,1444,1440,1440,1440,1440,1440,1440,1440,1440,1440,1440,1440,1440,1444,1444,1444,1444,1444,1444,1444,1444,1444,1444,1444,1444,1444,1444,1444,1444,1444,1444,1444,1447,1444,1444,1444,1444,1444,1444,1444,1444,1444,1444,1444,1444,1447,1447,1451,1451,1458,1465,1465,1465,1465,1465,1465,1465,1465,1468,1468,1468,1468,1468,1468,1468,1468,1468,1468,1468,1468,1468,1468,1465,1461,1461,1461,1458,1458,1454,1454,1454,1451,1451,1451,1451,1451,1447,1447,1447,1447,1447,1444,1444,1444,1444,1444,1444,1444,1447,1447,1447,1447,1451,1451,1451,1451,1451,1451,1451,1451,1451,1451,1451,1451,1451,1451,1451,1451,1451,1451,1451,1451,1451,1451,1451,1451,1454,1454,1454,1458,1458,1458,1458,1458,1461,1461,1461,1461,1461,1461,1461,1461,1461,1461,1458,1458,1454,1451,1451,1447,1444,1444,1440,1440,1440,1440,1440,1440,1444,1444,1444,1447,1447,1447,1451,1451,1451,1451,1451,1451,1444,1440,1440,1440,1440,1437,1437,1440,1440,1440,1447,1447,1451,1451,1458,1461,1461,1468,1468,1468,1475,1475,1475,1479,1479,1482,1486,1486,1486,1486,1486,1486,1486,1486,1490,1486,1486,1482,1479,1479,1475,1468,1468,1465,1465,1461,1458,1458,1451,1451,1447,1447,1447,1447,1447,1447,1447,1447,1447,1447,1447,1447,1447,1447,1447,1451,1451,1451,1454,1454,1454,1454,1454,1454,1454,1454,1454,1454,1458,1454,1454,1454,1454,1454,1458,1458,1458,1458,1458,1458,1458,1458,1458,1458,1458,1458,1458,1461,1461,1465,1465,1465,1465,1465,1465,1465,1465,1465,1465,1461,1461,1461,1458,1458,1458,1458,1454,1454,1454,1451,1451,1451,1451,1451,1451,1447,1447,1447,1447,1447,1447,1447,1447,1451,1454,1454,1461,1465,1465,1468,1468,1475,1475,1475,1475,1479,1479,1479,1479,1479,1479,1475,1475,1475,1475,1479,1479,1479,1479,1479,1482,1482,1482,1482,1482,1486,1490,1490,1490,1493,1493,1497,1497,1501,1504,1504,1504,1504,1504,1508,1508,1504,1504,1504,2343,2343,2334,2334,2334,2325,2325,2325,2308,2308,2308,2299
1465,1465,1465,1465,1465,1461,1461,1461,1461,1461,1458,1458,1458,1458,1458,1458,1458,1458,1458,1461,1461,1461,1461,1461,1461,1461,1461,1461,1461,1461,1465,1465,1465,1465,1465,1465,1465,1461,1461,1461,1461,1461,1461,1461,1458,1458,1461,1461,1461,1461,1461,1461,1461,1465,1465,1465,1468,1468,1468,1472,1472,1468,1468,1465,1465,1465,1465,1465,1461,1461,1461,1458,1458,1458,1454,1454,1454,1454,1454,1454,1454,1454,1454,1458,1458,1458,1458,1458,1461,1461,1465,1465,1465,1465,1465,1468,1472,1472,1472,1472,1472,1472,1472,1475,1475,1475,1475,1475,1475,1475,1475,1475,1475,1472,1472,1472,1472,1472,1472,1472,1472,1472,1472,1472,1468,1468,1468,1468,1468,1468,1468,1468,1468,1468,1468,1468,1468,1465,1465,1465,1465,1468,1465,1465,1468,1468,1468,1468,1468,1468,1468,1468,1468,1468,1468,1468,1468,1468,1465,1465,1465,1465,1465,1465,1465,1465,1465,1465,1465,1465,1465,1465,1465,1465,1465,1461,1461,1461,1461,1461,1461,1461,1458,1458,1458,1458,1458,1458,1458,1458,1458,1461,1461,1461,1461,1461,1465,1465,1465,1465,1465,1465,1465,1465,1465,1465,1465,1465,1465,1465,1465,1465,1461,1461,1461,1461,1458,1458,1458,1458,1458,1458,1454,1454,1454,1451,1451,1451,1451,1451,1447,1447,1447,1444,1444,1444,1444,1444,1440,1440,1440,1440,1440,1440,1440,1440,1440,1440,1440,1440,1440,1440,1444,1444,1444,1444,1444,1444,1444,1444,1444,1444,1444,1444,1444,1444,1447,1444,1444,1444,1444,1444,1444,1447,1447,1447,1451,1451,1451,1451,1451,1454,1458,1458,1465,1465,1465,1465,1465,1465,1465,1465,1468,1468,1468,1468,1468,1468,1468,1468,1468,1468,1468,1468,1465,1465,1461,1461,1461,1458,1458,1458,1454,1454,1454,1451,1451,1447,1447,1447,1447,1447,1444,1444,1444,1440,1440,1440,1440,1444,1444,1444,1444,1444,1444,1444,1444,1447,1447,1447,1447,1447,1451,1451,1451,1451,1451,1451,1451,1451,1451,1451,1451,1451,1451,1454,1454,1454,1454,1454,1454,1458,1458,1458,1458,1458,1461,1461,1461,1461,1461,1461,1461,1461,1461,1461,1461,1461,1458,1458,1454,1454,1454,1447,1447,1447,1444,1444,1444,1444,1444,1444,1444,1444,1444,1447,1447,1447,1451,1447,1447,1447,1447,1447,1444,1440,1440,1440,1440,1437,1437,1440,1440,1440,1444,1444,1451,1451,1458,1461,1461,1465,1468,1468,1472,1475,1475,1479,1479,1479,1482,1482,1482,1486,1486,1486,1486,1482,1482,1482,1482,1479,1475,1475,1472,1468,1468,1465,1465,1461,1458,1458,1451,1451,1451,1447,1447,1447,1447,1447,1447,1447,1447,1447,1447,1447,1447,1447,1447,1451,1451,1451,1454,1454,1454,1454,1454,1454,1454,1454,1454,1454,1458,1454,1454,1454,1454,1454,1458,1458,1458,1458,1458,1458,1458,1458,1458,1458,1458,1458,1458,1461,1461,1461,1465,1465,1465,1465,1465,1465,1465,1461,1461,1461,1461,1458,1458,1458,1454,1454,1451,1451,1451,1451,1447,1447,1447,1447,1444,1444,1444,1444,1444,1444,1444,1444,1444,1447,1451,1451,1458,1461,1461,1465,1465,1468,1472,1472,1475,1475,1475,1475,1475,1475,1475,1475,1475,1475,1475,1475,1475,1475,1479,1479,1479,1479,1479,1482,1482,1486,1490,1490,1490,1493,1493,1497,1497,1501,1504,1504,1504,1504,1504,1508,1508,1504,1504,1504,2352,2352,2334,2334,2334,2334,2325,2325,2308,2308,2308,2299
1461,1461,1461,1461,1461,1461,1461,1461,1461,1461,1458,1458,1458,1458,1458,1458,1458,1458,1458,1461,1461,1461,1461,1461,1461,1461,1461,1461,1461,1461,1465,1465,1465,1465,1465,1465,1465,1461,1461,1461,1461,1461,1458,1458,1458,1458,1458,1458,1461,1461,1461,1461,1461,1465,1465,1465,1465,1465,1468,1472,1468,1468,1468,1465,1465,1465,1465,1465,1461,1461,1461,1458,1458,1458,1454,1454,1451,1451,1451,1451,1454,1454,1454,1454,1454,1458,1458,1458,1461,1461,1465,1465,1465,1465,1465,1468,1472,1472,1472,1472,1472,1475,1475,1475,1475,1475,1475,1475,1475,1475,1475,1475,1475,1475,1475,1475,1475,1475,1475,1472,1472,1472,1472,1472,1472,1472,1472,1468,1468,1468,1472,1472,1472,1472,1472,1472,1472,1468,1468,1472,1468,1468,1468,1468,1472,1468,1468,1468,1468,1468,1468,1468,1468,1468,1468,1468,1468,1468,1465,1465,1465,1465,1465,1465,1465,1465,1465,1465,1465,1465,1465,1461,1461,1461,1461,1461,1461,1461,1461,1458,1458,1458,1458,1458,1458,1458,1458,1458,1458,1458,1458,1458,1458,1458,1461,1461,1461,1465,1465,1465,1465,1465,1465,1465,1465,1465,1465,1465,1461,1461,1461,1458,1458,1461,1461,1461,1458,1458,1458,1458,1458,1458,1454,1454,1454,1451,1451,1451,1451,1451,1447,1447,1447,1447,1447,1444,1444,1444,1440,1440,1440,1440,1440,1440,1440,1440,1440,1440,1440,1440,1440,1440,1440,1440,1440,1440,1440,1440,1440,1440,1440,1440,1440,1440,1440,1444,1447,1444,1444,1444,1444,1444,1444,1447,1447,1447,1451,1451,1451,1451,1451,1454,1458,1458,1465,1465,1465,1465,1465,1465,1465,1465,1465,1465,1465,1465,1465,1465,1465,1465,1465,1465,1465,1465,1461,1461,1458,1458,1458,1454,1454,1454,1454,1454,1451,1447,1447,1447,1447,1447,1447,1447,1444,1444,1444,1440,1440,1440,1440,1444,1444,1444,1444,1444,1444,1444,1444,1447,1447,1447,1447,1447,1451,1451,1451,1451,1451,1451,1451,1451,1451,1451,1451,1451,1451,1454,1454,1454,1454,1454,1454,1458,1458,1458,1458,1458,1461,1461,1461,1461,1461,1461,1461,1461,1461,1461,1461,1461,1458,1458,1454,1454,1454,1447,1447,1447,1444,1444,1444,1444,1444,1444,1444,1444,1444,1447,1447,1447,1451,1447,1447,1447,1447,1447,1444,1444,1444,1440,1440,1440,1440,1440,1440,1440,1444,1444,1451,1451,1454,1461,1461,1465,1468,1468,1472,1475,1475,1479,1479,1479,1482,1482,1482,1486,1486,1486,1486,1482,1482,1482,1482,1479,1475,1475,1472,1468,1468,1465,1465,1461,1458,1458,1451,1451,1451,1451,1451,1447,1447,1447,1447,1447,1447,1447,1447,1447,1447,1447,1447,1451,1451,1451,1454,1454,1454,1454,1454,1454,1454,1454,1454,1454,1454,1454,1454,1454,1454,1454,1454,1454,1458,1458,1458,1458,1458,1458,1458,1458,1458,1458,1458,1461,1461,1461,1461,1461,1461,1461,1465,1465,1461,1461,1461,1458,1458,1458,1454,1454,1451,1451,1451,1447,1447,1447,1444,1444,1444,1447,1444,1444,1444,1444,1444,1444,1444,1444,1444,1447,1451,1451,1458,1461,1461,1465,1465,1468,1472,1472,1475,1475,1475,1475,1475,1475,1475,1475,1475,1475,1475,1475,1475,1475,1479,1479,1479,1479,1479,1482,1482,1482,1486,1486,1490,1493,1493,1493,1493,1497,1501,1501,1504,1504,1504,1504,1501,1501,1501,1501,2343,2343,2334,2334,2334,2325,2325,2325,2308,2308,2308,2299
1461,1461,1461,1461,1461,1458,1458,1458,1458,1458,1458,1458,1458,1454,1454,1454,1454,1454,1454,1454,1454,1454,1454,1454,1458,1458,1458,1458,1458,1461,1461,1461,1461,1461,1461,1461,1461,1461,1461,1461,1461,1458,1458,1458,1458,1458,1458,1458,1461,1461,1461,1461,1461,1465,1465,1465,1465,1465,1468,1468,1468,1468,1468,1465,1465,1465,1461,1461,1461,1461,1461,1458,1458,1458,1454,1454,1451,1451,1451,1451,1454,1454,1454,1454,1454,1458,1458,1458,1461,1461,1465,1465,1465,1465,1465,1468,1472,1472,1472,1472,1472,1475,1475,1475,1475,1475,1475,1475,1475,1475,1475,1475,1475,1475,1475,1475,1475,1475,1475,1472,1472,1472,1472,1472,1472,1472,1472,1468,1468,1468,1472,1472,1472,1472,1472,1472,1472,1468,1468,1472,1468,1468,1468,1468,1472,1472,1472,1472,1472,1472,1468,1468,1472,1472,1472,1468,1465,1465,1465,1465,1465,1465,1465,1461,1461,1461,1461,1461,1461,1461,1461,1461,1461,1461,1461,1461,1461,1461,1461,1458,1458,1458,1458,1458,1458,1458,1458,1458,1458,1458,1458,1458,1458,1458,1461,1461,1461,1465,1465,1465,1465,1465,1465,1465,1465,1465,1465,1465,1461,1461,1461,1458,1458,1458,1458,1458,1458,1458,1458,1454,1454,1454,1454,1454,1451,1451,1451,1451,1451,1451,1447,1447,1447,1447,1447,1444,1444,1444,1440,1440,1440,1440,1440,1440,1440,1440,1440,1440,1440,1440,1440,1437,1437,1437,1437,1437,1437,1440,1440,1440,1440,1440,1440,1440,1440,1440,1447,1447,1447,1444,1444,1444,1444,1447,1451,1451,1451,1451,1451,1451,1451,1454,1458,1458,1465,1465,1465,1465,1465,1465,1465,1465,1465,1465,1465,1465,1465,1465,1465,1465,1465,1465,1465,1465,1461,1461,1458,1458,1458,1454,1454,1454,1454,1454,1451,1447,1447,1447,1444,1444,1444,1444,1444,1444,1444,1437,1437,1437,1440,1440,1440,1440,1440,1440,1444,1444,1444,1447,1447,1447,1447,1447,1447,1447,1451,1451,1451,1451,1451,1451,1451,1451,1451,1451,1451,1451,1454,1454,1454,1454,1454,1454,1454,1458,1461,1461,1461,1461,1461,1461,1461,1461,1465,1461,1461,1461,1461,1461,1461,1458,1458,1454,1454,1451,1447,1447,1447,1447,1447,1444,1444,1444,1447,1447,1447,1447,1447,1447,1451,1451,1447,1447,1447,1447,1447,1444,1444,1440,1440,1440,1440,1444,1444,1444,1447,1447,1451,1451,1454,1461,1461,1465,1468,1468,1468,1472,1472,1475,1475,1479,1479,1479,1479,1479,1479,1482,1482,1482,1482,1479,1479,1475,1475,1475,1472,1468,1468,1465,1465,1461,1458,1458,1451,1451,1451,1451,1451,1447,1447,1447,1447,1447,1447,1447,1447,1447,1447,1451,1451,1451,1451,1451,1454,1454,1454,1454,1454,1454,1454,1454,1454,1454,1451,1451,1451,1451,1451,1454,1454,1454,1458,1458,1458,1458,1458,1458,1458,1458,1458,1458,1458,1461,1461,1461,1461,1461,1461,1461,1465,1465,1461,1461,1461,1458,1458,1458,1454,1454,1451,1451,1451,1447,1447,1447,1444,1444,1444,1444,1444,1444,1444,1444,1440,1440,1440,1444,1444,1444,1447,1447,1454,1458,1458,1465,1465,1465,1468,1468,1472,1475,1475,1475,1472,1472,1472,1472,1472,1472,1472,1472,1472,1475,1475,1475,1475,1475,1475,1479,1479,1479,1482,1482,1486,1486,1486,1490,1490,1493,1497,1497,1497,1497,1497,1497,1497,1493,1493,1493,2343,2343,2334,2334,2334,2325,2325,2325,2308,2308,2308,2308
1461,1461,1458,1458,1458,1458,1458,1454,1454,1454,1451,1451,1451,1451,1451,1451,1451,1447,1447,1451,1451,1451,1451,1451,1454,1454,1454,1454,1454,1458,1461,1461,1461,1461,1461,1461,1461,1461,1461,1461,1461,1458,1458,1458,1458,1458,1458,1458,1461,1461,1461,1461,1461,1465,1465,1465,1465,1465,1468,1468,1468,1468,1468,1465,1465,1465,1461,1461,1461,1458,1458,1458,1458,1454,1451,1451,1451,1451,1451,1451,1451,1451,1451,1454,1454,1454,1454,1458,1458,1458,1461,1465,1465,1465,1465,1465,1468,1468,1472,1472,1472,1472,1472,1472,1472,1472,1475,1475,1475,1475,1475,1475,1475,1475,1475,1475,1475,1475,1475,1475,1475,1475,1475,1475,1475,1475,1475,1475,1475,1475,1475,1475,1475,1475,1475,1475,1475,1475,1475,1475,1475,1475,1475,1475,1475,1475,1472,1472,1472,1472,1472,1472,1472,1472,1472,1468,1465,1465,1465,1465,1465,1465,1465,1461,1461,1461,1461,1461,1461,1461,1461,1461,1461,1461,1458,1458,1458,1458,1458,1458,1458,1458,1454,1454,1454,1454,1454,1454,1454,1458,1458,1458,1458,1458,1458,1458,1458,1461,1461,1461,1461,1461,1461,1461,1458,1458,1458,1458,1458,1458,1458,1454,1454,1454,1454,1454,1451,1451,1451,1451,1451,1451,1451,1451,1451,1451,1451,1451,1447,1447,1447,1447,1447,1444,1444,1444,1444,1444,1440,1440,1440,1440,1440,1440,1440,1440,1440,1440,1440,1440,1440,1437,1437,1437,1437,1437,1437,1440,1440,1440,1440,1440,1440,1440,1440,1440,1447,1447,1447,1447,1447,1447,1447,1447,1451,1451,1451,1451,1451,1451,1451,1454,1458,1458,1465,1465,1465,1465,1465,1465,1465,1465,1465,1465,1461,1461,1461,1461,1461,1461,1461,1458,1458,1458,1458,1458,1454,1454,1454,1454,1454,1454,1451,1451,1447,1447,1447,1444,1444,1444,1444,1444,1444,1440,1440,1437,1437,1437,1437,1440,1440,1440,1440,1440,1440,1440,1444,1444,1444,1447,1447,1447,1447,1447,1451,1451,1451,1451,1451,1451,1451,1451,1451,1451,1451,1451,1454,1454,1454,1454,1454,1454,1454,1458,1461,1461,1461,1461,1461,1461,1461,1461,1465,1465,1465,1465,1461,1461,1461,1458,1458,1454,1454,1451,1447,1447,1447,1447,1447,1444,1444,1444,1447,1447,1447,1447,1447,1447,1451,1451,1447,1447,1447,1447,1447,1444,1444,1440,1440,1440,1440,1444,1444,1444,1447,1447,1451,1451,1454,1461,1461,1465,1465,1465,1468,1468,1468,1475,1475,1475,1475,1475,1475,1479,1479,1479,1479,1479,1479,1475,1475,1475,1472,1472,1468,1468,1468,1465,1465,1461,1458,1458,1458,1458,1458,1454,1454,1451,1451,1454,1451,1451,1451,1451,1451,1451,1451,1451,1451,1454,1454,1454,1454,1454,1454,1454,1454,1454,1454,1454,1454,1454,1451,1451,1451,1451,1451,1454,1454,1454,1454,1458,1458,1458,1458,1458,1458,1458,1458,1458,1458,1461,1461,1461,1461,1461,1461,1461,1461,1461,1461,1461,1461,1458,1458,1458,1454,1454,1451,1451,1451,1447,1447,1444,1444,1444,1444,1444,1444,1444,1444,1440,1440,1440,1440,1440,1440,1444,1447,1447,1451,1458,1458,1461,1461,1465,1468,1468,1468,1472,1472,1472,1472,1472,1472,1472,1472,1472,1472,1472,1472,1475,1475,1475,1475,1475,1475,1479,1479,1479,1482,1482,1486,1486,1486,1490,1490,1493,1497,1497,1497,1497,1497,1497,1497,1493,1493,1493,2343,2343,2334,2334,2334,2325,2325,2325,2308,2308,2308,2308
1461,1461,1458,1458,1458,1458,1458,1454,1454,1454,1451,1451,1451,1451,1451,1451,1451,1447,1447,1451,1451,1451,1451,1451,1454,1454,1454,1454,1454,1458,1461,1461,1461,1461,1461,1461,1461,1458,1458,1458,1458,1458,1458,1458,1454,1454,1454,1454,1458,1458,1461,1461,1461,1461,1465,1465,1465,1465,1465,1468,1468,1465,1465,1465,1465,1461,1461,1461,1458,1454,1454,1454,1454,1451,1447,1447,1447,1447,1447,1447,1447,1447,1451,1451,1451,1454,1454,1454,1458,1458,1458,1461,1461,1461,1465,1465,1468,1468,1472,1472,1472,1472,1472,1472,1472,1472,1475,1475,1475,1475,1475,1475,1475,1475,1475,1475,1475,1475,1475,1475,1475,1475,1475,1475,1475,1475,1475,1475,1475,1475,1475,1479,1475,1475,1475,1475,1475,1475,1475,1475,1475,1475,1475,1475,1475,1475,1472,1472,1472,1472,1472,1472,1472,1472,1468,1468,1465,1465,1465,1465,1465,1465,1465,1461,1461,1461,1461,1458,1458,1458,1458,1458,1458,1458,1458,1458,1458,1458,1458,1454,1454,1454,1454,1454,1454,1454,1454,1454,1454,1458,1458,1458,1458,1458,1458,1458,1458,1458,1458,1461,1461,1461,1461,1461,1458,1458,1458,1458,1458,1458,1458,1454,1454,1454,1454,1454,1451,1451,1451,1451,1451,1451,1451,1451,1451,1451,1451,1451,1447,1447,1447,1447,1447,1444,1444,1444,1444,1444,1440,1440,1440,1440,1440,1440,1440,1437,1437,1437,1437,1437,1437,1437,1437,1437,1437,1437,1437,1437,1440,1440,1440,1440,1440,1440,1440,1440,1447,1447,1447,1447,1447,1447,1447,1447,1451,1451,1451,1451,1454,1454,1454,1458,1458,1458,1461,1461,1458,1458,1458,1458,1458,1458,1458,1458,1458,1458,1458,1454,1454,1454,1454,1454,1454,1458,1458,1458,1454,1454,1454,1454,1454,1454,1451,1451,1447,1447,1447,1444,1444,1444,1444,1444,1444,1440,1440,1437,1437,1437,1437,1440,1440,1440,1440,1440,1440,1440,1444,1444,1444,1447,1447,1447,1447,1447,1447,1451,1451,1447,1447,1447,1447,1447,1447,1451,1451,1451,1454,1451,1451,1451,1454,1454,1454,1454,1458,1458,1461,1461,1461,1461,1461,1461,1465,1465,1465,1465,1461,1461,1461,1458,1458,1458,1458,1454,1451,1451,1451,1451,1447,1447,1447,1447,1447,1447,1447,1447,1447,1451,1451,1451,1451,1451,1451,1451,1447,1447,1447,1447,1444,1444,1444,1447,1447,1447,1451,1451,1454,1458,1458,1461,1461,1465,1465,1465,1468,1468,1468,1475,1475,1475,1475,1475,1475,1479,1479,1479,1479,1479,1479,1475,1475,1475,1472,1472,1468,1468,1468,1465,1465,1461,1458,1458,1458,1458,1458,1454,1454,1451,1451,1454,1451,1451,1451,1451,1451,1451,1451,1451,1451,1454,1454,1454,1454,1454,1454,1454,1454,1454,1451,1451,1451,1451,1451,1451,1451,1451,1451,1451,1451,1451,1454,1454,1454,1458,1458,1458,1458,1458,1458,1458,1458,1458,1458,1461,1461,1461,1461,1461,1461,1461,1461,1461,1461,1458,1458,1458,1454,1454,1451,1451,1451,1447,1447,1444,1444,1444,1444,1444,1444,1444,1444,1440,1440,1440,1440,1440,1440,1444,1447,1447,1451,1458,1458,1461,1461,1465,1468,1468,1468,1472,1472,1472,1472,1472,1472,1472,1472,1472,1472,1472,1472,1472,1475,1475,1475,1475,1475,1475,1475,1479,1479,1479,1479,1482,1482,1486,1486,1490,1490,1490,1490,1490,1490,1490,1490,1490,1490,1490,2343,2343,2334,2334,2334,2325,2325,2325,2308,2308,2308,2308
1458,1458,1458,1458,1454,1454,1454,1451,1451,1451,1451,1451,1451,1447,1447,1447,1447,1447,1447,1447,1447,1447,1447,1447,1451,1451,1451,1451,1451,1454,1458,1458,1461,1458,1458,1458,1458,1458,1458,1458,1458,1458,1454,1454,1454,1454,1454,1454,1458,1458,1458,1461,1461,1461,1465,1465,1465,1465,1465,1468,1468,1465,1465,1465,1465,1461,1461,1461,1458,1454,1454,1454,1454,1451,1447,1447,1447,1447,1447,1447,1447,1447,1451,1451,1451,1454,1454,1454,1458,1458,1458,1461,1461,1461,1465,1465,1465,1465,1465,1468,1468,1468,1472,1472,1472,1472,1472,1472,1472,1472,1472,1472,1472,1472,1472,1475,1475,1475,1475,1475,1475,1475,1475,1475,1475,1475,1475,1475,1475,1475,1475,1479,1479,1479,1479,1475,1475,1475,1475,1475,1475,1475,1475,1475,1475,1475,1472,1472,1472,1472,1472,1472,1472,1468,1468,1468,1465,1465,1465,1465,1465,1465,1465,1461,1461,1461,1461,1458,1458,1458,1458,1458,1458,1458,1458,1458,1458,1458,1458,1454,1454,1454,1454,1454,1454,1454,1454,1454,1454,1458,1458,1458,1458,1458,1458,1458,1458,1458,1458,1458,1458,1458,1458,1458,1458,1458,1458,1458,1454,1454,1454,1451,1451,1451,1451,1451,1451,1451,1451,1451,1451,1451,1447,1447,1447,1447,1447,1447,1447,1447,1447,1447,1447,1444,1444,1444,1440,1440,1440,1440,1440,1440,1440,1437,1437,1437,1437,1437,1434,1434,1437,1437,1437,1437,1437,1437,1437,1437,1440,1440,1440,1440,1440,1440,1440,1444,1447,1447,1447,1447,1447,1451,1451,1451,1451,1451,1454,1454,1454,1454,1454,1458,1458,1458,1461,1461,1458,1458,1458,1458,1458,1458,1458,1458,1458,1458,1458,1454,1454,1454,1454,1454,1454,1454,1454,1454,1451,1451,1451,1451,1447,1447,1447,1447,1447,1447,1447,1444,1444,1444,1444,1444,1440,1440,1440,1437,1437,1437,1437,1440,1440,1440,1440,1440,1440,1440,1440,1444,1444,1444,1444,1444,1447,1447,1447,1447,1447,1447,1447,1447,1447,1447,1447,1447,1447,1451,1451,1451,1451,1451,1454,1454,1454,1454,1458,1458,1461,1461,1461,1461,1461,1465,1465,1465,1465,1465,1465,1465,1461,1461,1461,1461,1461,1458,1458,1458,1454,1454,1451,1451,1451,1451,1451,1451,1451,1451,1451,1451,1454,1454,1451,1451,1451,1454,1451,1447,1447,1447,1444,1444,1444,1447,1447,1447,1451,1451,1454,1458,1458,1461,1461,1465,1465,1465,1468,1468,1468,1468,1468,1472,1472,1472,1472,1472,1472,1472,1472,1472,1472,1472,1472,1472,1468,1468,1468,1465,1465,1465,1465,1461,1461,1461,1458,1458,1458,1458,1458,1458,1458,1458,1458,1458,1458,1458,1458,1458,1454,1454,1454,1454,1454,1454,1454,1454,1454,1454,1454,1454,1451,1451,1451,1451,1451,1451,1451,1451,1451,1451,1451,1451,1454,1454,1454,1458,1458,1458,1458,1458,1458,1458,1458,1458,1458,1461,1461,1461,1461,1461,1461,1465,1461,1461,1461,1458,1458,1458,1454,1454,1451,1451,1451,1447,1447,1444,1444,1444,1444,1444,1444,1440,1440,1440,1440,1440,1440,1440,1440,1440,1444,1444,1451,1454,1454,1458,1458,1465,1468,1468,1468,1472,1472,1472,1472,1472,1472,1472,1472,1472,1472,1472,1472,1472,1472,1472,1472,1472,1472,1472,1472,1472,1475,1475,1475,1479,1479,1482,1482,1486,1490,1490,1490,1490,1490,1490,1490,1490,1490,1490,2343,2343,2343,2334,2334,2334,2325,2325,2317,2317,2317,2317
1458,1458,1454,1454,1454,1451,1451,1451,1451,1451,1447,1447,1447,1447,1447,1447,1447,1447,1447,1447,1447,1447,1447,1447,1451,1451,1451,1451,1451,1454,1458,1458,1461,1458,1458,1458,1458,1458,1458,1458,1458,1458,1454,1454,1454,1454,1454,1454,1458,1458,1458,1461,1461,1461,1465,1465,1465,1465,1465,1468,1468,1465,1465,1461,1461,1461,1458,1458,1454,1454,1454,1451,1451,1451,1447,1447,1447,1447,1447,1447,1447,1447,1447,1451,1451,1451,1454,1454,1458,1458,1458,1458,1458,1458,1461,1461,1461,1461,1465,1465,1465,1465,1465,1465,1465,1465,1465,1465,1465,1468,1468,1468,1468,1468,1472,1472,1472,1472,1475,1475,1475,1475,1475,1475,1475,1479,1479,1479,1479,1479,1479,1479,1479,1479,1479,1479,1479,1479,1479,1479,1479,1479,1479,1475,1475,1475,1475,1475,1472,1472,1472,1472,1472,1468,1468,1468,1465,1465,1465,1465,1465,1461,1461,1458,1458,1458,1458,1458,1458,1458,1458,1458,1458,1458,1458,1454,1454,1454,1454,1454,1454,1454,1454,1454,1454,1454,1454,1454,1454,1454,1454,1454,1454,1454,1454,1454,1454,1454,1454,1454,1454,1454,1454,1454,1454,1454,1451,1451,1451,1451,1451,1451,1451,1451,1447,1447,1447,1447,1447,1447,1447,1447,1447,1447,1447,1447,1447,1447,1447,1447,1447,1447,1447,1444,1444,1444,1440,1440,1440,1440,1440,1440,1440,1437,1437,1437,1437,1437,1434,1434,1437,1437,1437,1437,1437,1437,1437,1437,1440,1440,1440,1440,1440,1440,1440,1444,1447,1447,1447,1447,1447,1451,1451,1451,1451,1451,1454,1454,1454,1454,1454,1454,1454,1454,1454,1454,1454,1454,1454,1454,1454,1451,1451,1451,1451,1451,1451,1451,1451,1451,1451,1451,1451,1451,1451,1451,1447,1447,1447,1447,1447,1447,1447,1447,1444,1444,1444,1444,1444,1444,1440,1440,1440,1440,1440,1437,1437,1437,1437,1440,1440,1440,1440,1440,1440,1440,1440,1444,1444,1444,1444,1444,1447,1447,1447,1447,1447,1447,1447,1447,1447,1447,1447,1447,1447,1451,1451,1451,1451,1451,1454,1454,1454,1454,1458,1458,1461,1461,1461,1461,1461,1465,1465,1465,1465,1465,1465,1465,1461,1461,1461,1461,1461,1458,1458,1458,1454,1454,1451,1451,1451,1451,1451,1451,1451,1451,1451,1451,1454,1454,1451,1451,1451,1454,1451,1451,1451,1451,1451,1451,1451,1451,1451,1451,1454,1454,1458,1461,1461,1461,1461,1465,1465,1465,1468,1468,1468,1468,1468,1468,1468,1468,1468,1472,1472,1472,1472,1472,1472,1472,1472,1472,1468,1468,1468,1465,1465,1465,1465,1461,1461,1461,1461,1461,1461,1461,1461,1461,1461,1461,1461,1465,1465,1461,1461,1461,1458,1458,1458,1458,1458,1454,1454,1454,1454,1454,1451,1451,1451,1451,1451,1451,1451,1451,1451,1451,1451,1451,1451,1451,1451,1454,1454,1454,1454,1458,1458,1458,1458,1458,1458,1458,1458,1458,1461,1461,1461,1461,1461,1465,1461,1461,1461,1458,1458,1458,1454,1454,1451,1451,1451,1447,1447,1444,1444,1444,1444,1444,1444,1440,1440,1440,1440,1440,1440,1440,1440,1440,1444,1444,1451,1454,1454,1458,1458,1465,1468,1468,1468,1472,1472,1472,1472,1472,1472,1472,1472,1472,1472,1472,1472,1472,1472,1472,1472,1472,1472,1472,1472,1472,1475,1475,1475,1479,1479,1482,1482,1486,1486,1486,1486,1486,1486,1486,1486,1486,1486,1482,1482,2343,2343,2334,2334,2334,2325,2325,2317,2317,2317,2317
1458,1458,1454,1454,1454,1451,1451,1451,1451,1451,1447,1447,1447,1447,1447,1444,1444,1444,1444,1444,1444,1444,1444,1444,1447,1447,1447,1451,1451,1454,1454,1454,1458,1458,1458,1458,1458,1458,1458,1458,1458,1458,1454,1454,1454,1454,1454,1454,1458,1458,1458,1461,1461,1461,1465,1465,1465,1465,1465,1465,1465,1465,1465,1461,1461,1458,1454,1454,1454,1451,1451,1451,1451,1447,1444,1444,1444,1444,1447,1447,1447,1447,1447,1451,1451,1451,1454,1454,1458,1458,1458,1458,1458,1458,1461,1461,1461,1461,1465,1465,1465,1465,1465,1465,1465,1465,1465,1465,1465,1468,1468,1468,1468,1468,1472,1472,1472,1472,1475,1475,1475,1475,1475,1475,1475,1475,1475,1479,1479,1479,1479,1479,1479,1479,1479,1479,1479,1479,1479,1479,1479,1479,1479,1475,1475,1475,1475,1475,1472,1472,1472,1468,1468,1468,1465,1465,1465,1465,1461,1461,1461,1458,1458,1458,1458,1458,1458,1458,1458,1458,1458,1454,1454,1454,1454,1454,1454,1454,1454,1454,1454,1454,1454,1454,1454,1454,1454,1454,1454,1454,1454,1454,1454,1454,1454,1454,1454,1454,1454,1454,1454,1454,1454,1454,1454,1454,1451,1451,1451,1451,1451,1451,1451,1451,1447,1447,1447,1447,1447,1447,1447,1447,1447,1447,1447,1447,1447,1447,1447,1447,1447,1447,1444,1444,1444,1440,1440,1440,1440,1440,1440,1437,1437,1437,1437,1434,1434,1434,1434,1434,1434,1434,1437,1437,1437,1437,1437,1437,1440,1440,1440,1440,1440,1444,1444,1444,1451,1451,1451,1451,1451,1451,1451,1454,1454,1454,1454,1454,1454,1454,1454,1454,1454,1454,1454,1454,1451,1451,1451,1451,1454,1451,1451,1451,1451,1451,1451,1451,1451,1451,1451,1451,1451,1451,1451,1451,1447,1447,1447,1447,1447,1447,1447,1447,1444,1444,1444,1444,1444,1444,1440,1440,1440,1440,1440,1437,1437,1437,1437,1440,1440,1440,1440,1440,1440,1440,1440,1444,1444,1444,1444,1444,1444,1447,1447,1447,1447,1447,1447,1444,1444,1444,1444,1447,1447,1447,1447,1447,1451,1451,1451,1454,1454,1454,1458,1458,1461,1461,1461,1465,1465,1465,1465,1465,1465,1465,1465,1465,1465,1461,1461,1461,1461,1461,1458,1458,1458,1458,1458,1454,1454,1454,1454,1454,1454,1454,1454,1454,1458,1458,1454,1454,1454,1458,1458,1458,1458,1458,1458,1458,1458,1458,1458,1458,1461,1461,1465,1465,1465,1465,1465,1465,1465,1465,1468,1468,1468,1468,1468,1468,1468,1468,1468,1468,1468,1468,1468,1468,1468,1468,1468,1468,1468,1468,1465,1461,1461,1461,1461,1461,1461,1461,1461,1461,1461,1461,1461,1461,1461,1461,1461,1465,1465,1461,1461,1461,1458,1458,1458,1458,1458,1458,1458,1458,1454,1454,1451,1451,1451,1451,1451,1451,1447,1447,1447,1447,1447,1447,1451,1451,1451,1451,1451,1454,1454,1454,1458,1458,1458,1458,1458,1458,1458,1458,1461,1461,1461,1465,1465,1465,1465,1461,1461,1461,1461,1458,1454,1454,1454,1451,1451,1451,1451,1447,1444,1444,1444,1444,1444,1444,1444,1440,1440,1440,1440,1440,1440,1440,1444,1444,1451,1454,1454,1458,1458,1461,1465,1465,1468,1472,1472,1472,1472,1468,1468,1468,1468,1468,1468,1468,1468,1468,1468,1468,1468,1468,1468,1468,1468,1468,1472,1472,1472,1472,1472,1475,1475,1479,1479,1479,1479,1479,1479,1479,1479,1479,1479,1479,1479,2343,2343,2343,2343,2334,2334,2334,2325,2325,2325,2325
1454,1454,1454,1454,1451,1451,1451,1451,1447,1447,1447,1447,1447,1444,1444,1444,1444,1440,1440,1444,1444,1444,1444,1444,1444,1444,1447,1451,1451,1451,1454,1454,1458,1458,1458,1458,1458,1458,1458,1458,1458,1458,1454,1454,1454,1454,1454,1454,1458,1458,1458,1461,1461,1461,1465,1465,1465,1465,1465,1465,1465,1465,1465,1461,1461,1458,1454,1454,1454,1451,1451,1451,1451,1447,1444,1444,1444,1444,1447,1447,1447,1447,1447,1447,1447,1451,1454,1454,1454,1454,1458,1458,1458,1458,1458,1458,1458,1458,1461,1461,1461,1461,1461,1461,1461,1461,1461,1461,1461,1465,1465,1465,1465,1465,1465,1468,1468,1472,1472,1472,1472,1472,1475,1475,1475,1475,1475,1479,1479,1479,1479,1479,1479,1479,1479,1479,1479,1479,1475,1475,1475,1475,1475,1472,1472,1472,1475,1475,1472,1472,1472,1468,1468,1468,1465,1465,1465,1465,1461,1461,1461,1458,1458,1458,1458,1458,1458,1458,1458,1458,1458,1454,1454,1454,1454,1454,1454,1454,1454,1454,1454,1454,1454,1454,1454,1454,1454,1451,1451,1451,1451,1454,1454,1454,1454,1454,1454,1454,1454,1451,1451,1451,1451,1451,1451,1451,1451,1451,1451,1447,1447,1447,1447,1447,1447,1447,1447,1444,1444,1444,1444,1444,1444,1444,1444,1444,1444,1444,1444,1444,1444,1444,1440,1440,1440,1440,1440,1440,1440,1440,1437,1437,1437,1434,1434,1434,1434,1434,1434,1434,1434,1434,1437,1437,1437,1437,1437,1437,1440,1440,1440,1440,1444,1444,1444,1447,1451,1451,1451,1451,1451,1454,1454,1454,1454,1454,1454,1454,1454,1454,1454,1454,1454,1454,1454,1454,1451,1451,1451,1451,1451,1451,1451,1447,1447,1447,1447,1447,1447,1447,1447,1447,1447,1447,1447,1447,1447,1447,1447,1444,1444,1447,1444,1444,1444,1444,1444,1444,1440,1440,1440,1440,1440,1440,1440,1437,1437,1437,1437,1437,1437,1437,1440,1440,1440,1440,1440,1444,1444,1444,1444,1444,1444,1444,1444,1444,1444,1444,1444,1444,1444,1440,1440,1444,1444,1447,1447,1447,1451,1451,1451,1454,1454,1454,1458,1458,1461,1461,1461,1465,1465,1465,1465,1465,1465,1465,1465,1468,1465,1465,1465,1465,1465,1461,1461,1461,1461,1458,1458,1458,1458,1458,1454,1454,1454,1454,1454,1454,1458,1458,1454,1454,1454,1458,1458,1458,1458,1458,1458,1458,1458,1458,1458,1458,1461,1461,1465,1465,1465,1465,1465,1465,1465,1465,1465,1465,1465,1465,1465,1465,1465,1465,1465,1465,1465,1465,1465,1465,1465,1465,1465,1461,1461,1461,1461,1461,1461,1461,1461,1461,1461,1461,1461,1465,1465,1465,1465,1465,1465,1468,1468,1468,1468,1468,1468,1465,1465,1465,1461,1458,1458,1458,1458,1458,1454,1454,1451,1451,1451,1451,1451,1451,1447,1447,1447,1447,1447,1447,1451,1451,1451,1451,1451,1454,1454,1454,1458,1458,1458,1458,1458,1458,1458,1458,1461,1461,1461,1465,1465,1465,1465,1461,1461,1461,1461,1458,1454,1454,1454,1451,1451,1451,1451,1447,1444,1444,1444,1444,1444,1444,1444,1440,1440,1440,1440,1440,1440,1440,1444,1444,1447,1454,1454,1458,1461,1461,1465,1465,1468,1472,1472,1472,1472,1468,1468,1468,1468,1468,1468,1468,1465,1465,1465,1465,1468,1468,1468,1468,1468,1468,1472,1472,1472,1472,1472,1475,1475,1479,1479,1479,1479,1479,1479,1479,1479,1479,1479,1479,1479,2352,2352,2352,2352,2343,2343,2352,2352,2352,2352,2343
1454,1454,1454,1454,1451,1451,1451,1451,1447,1447,1447,1447,1447,1444,1444,1444,1444,1440,1440,1444,1444,1444,1444,1444,1444,1444,1447,1451,1451,1451,1454,1454,1458,1458,1458,1461,1461,1461,1461,1458,1458,1458,1454,1454,1454,1454,1454,1454,1454,1454,1458,1458,1458,1461,1461,1461,1465,1465,1465,1465,1465,1465,1465,1461,1461,1458,1454,1454,1451,1451,1451,1447,1447,1444,1444,1444,1444,1444,1444,1444,1444,1444,1447,1447,1447,1447,1451,1451,1454,1454,1454,1454,1454,1458,1458,1458,1458,1458,1458,1458,1458,1458,1458,1458,1458,1458,1458,1461,1461,1465,1465,1465,1465,1465,1465,1468,1468,1472,1472,1472,1472,1472,1475,1475,1475,1475,1479,1479,1479,1479,1479,1479,1479,1479,1479,1479,1479,1479,1475,1475,1475,1475,1475,1472,1472,1472,1468,1468,1468,1468,1465,1465,1465,1465,1465,1465,1461,1461,1461,1458,1458,1458,1458,1458,1458,1458,1458,1454,1454,1454,1454,1454,1454,1454,1454,1454,1454,1454,1454,1454,1451,1451,1451,1451,1451,1451,1451,1451,1451,1451,1451,1451,1451,1451,1451,1451,1451,1451,1451,1451,1451,1451,1451,1451,1451,1451,1451,1447,1447,1447,1447,1447,1447,1447,1447,1447,1447,1444,1444,1444,1444,1444,1444,1444,1444,1444,1444,1444,1444,1444,1444,1444,1440,1440,1440,1440,1440,1440,1440,1440,1437,1437,1437,1434,1434,1434,1434,1434,1434,1434,1434,1434,1434,1434,1437,1437,1437,1437,1440,1440,1440,1440,1444,1444,1444,1447,1451,1451,1451,1451,1451,1454,1454,1454,1454,1454,1454,1454,1454,1454,1454,1454,1454,1451,1451,1451,1451,1451,1447,1447,1447,1444,1444,1444,1444,1444,1444,1444,1444,1444,1444,1444,1444,1444,1444,1444,1444,1444,1444,1444,1444,1444,1444,1444,1444,1444,1444,1444,1440,1440,1440,1440,1440,1440,1440,1437,1437,1437,1437,1437,1437,1437,1440,1440,1440,1440,1440,1444,1444,1444,1444,1444,1444,1444,1444,1444,1444,1444,1444,1444,1444,1440,1440,1444,1444,1444,1447,1447,1447,1447,1451,1451,1451,1454,1458,1458,1461,1461,1461,1461,1461,1465,1465,1465,1465,1465,1465,1468,1465,1465,1465,1465,1465,1461,1461,1461,1461,1458,1458,1458,1458,1458,1458,1458,1458,1458,1458,1458,1458,1458,1458,1458,1458,1461,1461,1461,1461,1461,1461,1461,1461,1465,1461,1461,1461,1461,1465,1465,1465,1465,1465,1465,1465,1465,1465,1465,1465,1465,1465,1465,1465,1465,1465,1465,1465,1465,1465,1465,1465,1465,1465,1461,1461,1461,1461,1461,1461,1461,1461,1461,1461,1465,1465,1468,1468,1468,1472,1465,1465,1468,1468,1468,1468,1468,1468,1465,1465,1465,1461,1458,1458,1458,1458,1458,1454,1454,1451,1451,1451,1447,1447,1447,1447,1447,1447,1447,1447,1447,1447,1447,1447,1451,1451,1451,1451,1454,1454,1454,1458,1458,1458,1458,1458,1458,1461,1461,1461,1465,1465,1465,1465,1461,1461,1461,1461,1461,1458,1458,1454,1454,1454,1451,1451,1451,1447,1447,1444,1444,1444,1444,1444,1440,1440,1440,1440,1440,1440,1440,1444,1444,1447,1454,1454,1458,1461,1461,1465,1465,1468,1472,1472,1472,1472,1468,1468,1468,1468,1468,1468,1468,1465,1465,1465,1465,1465,1465,1465,1465,1465,1465,1465,1465,1468,1468,1468,1472,1472,1472,1475,1475,1475,1475,1475,1475,1475,1475,1475,1472,1472,2352,2352,2352,2352,2343,2343,2352,2352,2352,2352,2343
1454,1454,1454,1454,1451,1451,1451,1451,1447,1447,1447,1447,1447,1444,1444,1444,1444,1440,1440,1444,1444,1444,1444,1444,1444,1444,1447,1451,1451,1451,1454,1454,1458,1458,1458,1461,1461,1461,1461,1458,1458,1458,1454,1454,1454,1454,1454,1454,1454,1454,1454,1458,1458,1458,1461,1461,1461,1461,1465,1465,1465,1461,1461,1458,1458,1454,1454,1454,1451,1451,1451,1447,1447,1444,1444,1444,1444,1444,1444,1444,1444,1444,1447,1447,1447,1447,1451,1451,1454,1454,1454,1454,1454,1458,1458,1458,1458,1458,1458,1458,1458,1458,1458,1458,1458,1458,1458,1458,1458,1458,1461,1461,1461,1461,1461,1465,1465,1465,1468,1468,1472,1472,1472,1472,1472,1475,1475,1475,1479,1475,1475,1475,1475,1475,1475,1472,1472,1472,1472,1472,1472,1472,1468,1468,1468,1468,1465,1465,1465,1465,1465,1465,1465,1465,1465,1465,1458,1458,1458,1458,1458,1458,1458,1458,1454,1454,1454,1454,1454,1454,1454,1454,1454,1454,1454,1454,1454,1454,1454,1454,1451,1451,1451,1451,1451,1451,1451,1451,1451,1451,1451,1451,1451,1451,1451,1451,1451,1451,1451,1451,1451,1451,1451,1451,1451,1451,1451,1447,1447,1447,1447,1444,1444,1444,1444,1444,1444,1444,1444,1444,1444,1444,1444,1444,1440,1440,1440,1440,1440,1440,1440,1440,1440,1440,1440,1440,1440,1440,1440,1440,1437,1434,1434,1434,1434,1434,1434,1434,1434,1434,1434,1434,1434,1434,1437,1437,1437,1437,1440,1440,1444,1444,1444,1447,1447,1451,1451,1451,1454,1454,1454,1454,1454,1454,1454,1454,1454,1454,1454,1454,1454,1454,1454,1451,1451,1451,1451,1451,1447,1447,1447,1444,1444,1444,1444,1444,1444,1444,1444,1444,1444,1444,1444,1444,1444,1444,1444,1444,1444,1444,1444,1444,1444,1444,1444,1444,1444,1444,1440,1440,1440,1440,1440,1440,1440,1437,1437,1437,1437,1437,1437,1437,1437,1437,1437,1440,1440,1440,1440,1440,1440,1440,1440,1444,1444,1444,1444,1444,1444,1444,1444,1440,1440,1440,1440,1444,1444,1444,1447,1447,1451,1451,1451,1451,1454,1454,1458,1461,1461,1461,1461,1465,1465,1465,1465,1465,1468,1468,1468,1465,1465,1465,1468,1465,1465,1465,1465,1461,1461,1461,1461,1461,1461,1461,1461,1458,1458,1458,1461,1461,1461,1461,1461,1461,1465,1465,1465,1465,1465,1465,1465,1465,1465,1465,1465,1465,1465,1465,1465,1465,1465,1461,1461,1461,1461,1461,1461,1461,1461,1461,1461,1461,1461,1461,1461,1461,1461,1461,1461,1461,1461,1461,1461,1461,1461,1461,1461,1461,1461,1461,1461,1465,1465,1468,1468,1468,1472,1472,1472,1475,1475,1475,1475,1475,1475,1472,1468,1468,1465,1465,1465,1461,1461,1458,1454,1454,1451,1451,1451,1447,1447,1447,1444,1444,1444,1447,1447,1447,1447,1447,1447,1451,1451,1451,1451,1454,1454,1454,1458,1458,1458,1458,1458,1458,1461,1461,1461,1465,1465,1465,1465,1461,1461,1461,1461,1461,1458,1458,1458,1454,1454,1451,1451,1451,1447,1447,1444,1444,1444,1444,1444,1440,1440,1440,1440,1440,1440,1440,1444,1444,1447,1454,1454,1458,1461,1461,1465,1465,1468,1472,1472,1472,1472,1468,1468,1468,1468,1468,1465,1465,1465,1465,1465,1465,1465,1465,1465,1465,1465,1465,1465,1465,1465,1465,1465,1468,1468,1472,1472,1472,1472,1472,1472,1472,1472,1472,1472,1468,1468,2361,2361,2361,2361,2352,2352,2352,2352,2352,2352,2352
1451,1451,1451,1451,1451,1451,1451,1451,1447,1447,1447,1447,1447,1444,1444,1444,1444,1440,1440,1444,1444,1444,1444,1444,1447,1447,1447,1451,1451,1454,1458,1458,1461,1461,1461,1465,1465,1465,1465,1461,1461,1458,1458,1458,1454,1454,1454,1454,1454,1454,1454,1458,1458,1458,1461,1461,1461,1461,1465,1465,1465,1461,1461,1458,1458,1454,1451,1451,1447,1444,1444,1444,1444,1440,1440,1440,1440,1440,1440,1440,1444,1444,1444,1447,1447,1447,1447,1447,1451,1451,1451,1454,1454,1454,1454,1454,1454,1454,1454,1454,1454,1454,1454,1454,1454,1454,1454,1454,1454,1454,1454,1454,1454,1454,1458,1461,1461,1465,1465,1465,1465,1465,1465,1465,1465,1468,1468,1468,1472,1468,1468,1472,1472,1475,1475,1472,1472,1472,1472,1472,1472,1472,1468,1468,1468,1468,1465,1465,1465,1465,1465,1465,1465,1465,1465,1465,1458,1458,1458,1458,1458,1458,1458,1458,1454,1454,1454,1454,1454,1454,1454,1454,1454,1454,1454,1451,1451,1451,1451,1451,1451,1451,1451,1451,1451,1451,1451,1451,1447,1447,1447,1447,1447,1447,1451,1451,1451,1451,1447,1447,1451,1451,1451,1451,1447,1447,1447,1447,1447,1444,1444,1444,1444,1444,1444,1444,1444,1444,1444,1440,1440,1440,1440,1440,1440,1440,1440,1440,1440,1440,1440,1440,1440,1440,1440,1440,1440,1440,1440,1440,1437,1434,1434,1434,1434,1434,1434,1434,1434,1434,1434,1434,1434,1437,1437,1437,1437,1437,1440,1440,1444,1444,1444,1447,1447,1451,1451,1451,1454,1454,1454,1454,1454,1454,1454,1454,1454,1454,1454,1454,1454,1451,1451,1451,1451,1447,1447,1447,1444,1444,1444,1440,1440,1440,1440,1440,1437,1437,1437,1437,1437,1437,1440,1440,1440,1440,1440,1440,1444,1444,1444,1444,1444,1444,1444,1444,1444,1440,1440,1440,1440,1440,1440,1437,1437,1437,1437,1437,1437,1437,1437,1437,1437,1437,1437,1437,1437,1440,1440,1440,1440,1440,1440,1444,1444,1444,1444,1444,1444,1444,1444,1440,1440,1440,1440,1444,1444,1444,1447,1451,1451,1451,1451,1451,1454,1454,1458,1461,1461,1461,1461,1465,1465,1465,1465,1468,1468,1468,1468,1465,1465,1465,1468,1465,1465,1465,1465,1461,1461,1461,1461,1461,1461,1461,1461,1458,1458,1458,1461,1461,1461,1461,1461,1461,1465,1465,1465,1465,1465,1465,1465,1465,1465,1465,1465,1465,1465,1465,1465,1465,1465,1461,1461,1461,1461,1461,1461,1461,1461,1461,1461,1458,1458,1458,1458,1458,1458,1458,1458,1458,1458,1458,1458,1458,1458,1461,1461,1461,1461,1465,1465,1468,1468,1472,1475,1475,1479,1479,1479,1482,1482,1482,1482,1479,1479,1479,1472,1472,1472,1465,1465,1465,1465,1458,1454,1454,1451,1451,1451,1447,1447,1447,1444,1444,1444,1444,1444,1444,1447,1447,1447,1447,1447,1451,1451,1451,1454,1454,1454,1458,1458,1458,1458,1458,1458,1458,1461,1461,1461,1465,1465,1461,1461,1461,1461,1461,1458,1458,1458,1454,1454,1451,1451,1451,1451,1451,1447,1444,1444,1444,1444,1444,1440,1440,1440,1440,1440,1440,1444,1444,1447,1454,1454,1458,1461,1461,1465,1465,1465,1472,1472,1472,1472,1468,1468,1468,1468,1468,1465,1465,1465,1465,1465,1465,1465,1465,1465,1465,1465,1465,1465,1465,1465,1465,1465,1468,1468,1472,1472,1472,1472,1472,1472,1472,1472,1472,1472,1468,1468,2361,2361,2361,2361,2352,2352,2352,2352,2352,2352,2352
1451,1451,1451,1451,1451,1451,1451,1451,1451,1451,1447,1447,1447,1447,1447,1444,1444,1444,1444,1444,1444,1444,1444,1444,1451,1451,1451,1451,1451,1454,1458,1458,1461,1461,1461,1465,1465,1465,1465,1461,1461,1458,1458,1458,1454,1454,1454,1454,1454,1454,1454,1454,1454,1458,1458,1458,1458,1458,1461,1461,1461,1458,1458,1454,1454,1451,1447,1447,1444,1444,1444,1440,1440,1440,1437,1437,1437,1437,1440,1440,1440,1440,1440,1444,1444,1447,1447,1447,1451,1451,1451,1451,1451,1454,1454,1454,1454,1454,1454,1454,1454,1454,1454,1454,1454,1454,1454,1454,1454,1454,1454,1454,1454,1454,1458,1461,1461,1465,1465,1465,1465,1465,1465,1465,1465,1468,1468,1468,1472,1468,1468,1472,1472,1472,1472,1472,1472,1468,1465,1465,1465,1465,1465,1465,1465,1461,1461,1461,1461,1461,1461,1461,1461,1461,1461,1461,1458,1458,1458,1458,1458,1458,1454,1454,1454,1454,1454,1451,1451,1451,1451,1451,1451,1451,1451,1451,1451,1451,1451,1451,1451,1451,1451,1451,1451,1451,1451,1447,1447,1447,1447,1447,1447,1447,1447,1447,1447,1451,1447,1447,1451,1451,1451,1451,1447,1447,1447,1447,1447,1444,1444,1444,1444,1444,1444,1444,1444,1444,1444,1440,1440,1440,1440,1440,1440,1440,1440,1440,1440,1440,1440,1440,1440,1440,1440,1440,1437,1437,1437,1437,1437,1434,1434,1434,1434,1434,1434,1434,1434,1434,1434,1434,1434,1434,1434,1437,1437,1437,1437,1437,1440,1444,1444,1444,1444,1447,1447,1447,1451,1454,1454,1454,1454,1454,1454,1454,1454,1454,1454,1454,1451,1451,1451,1447,1447,1447,1444,1444,1444,1444,1444,1440,1440,1437,1437,1437,1437,1437,1437,1437,1437,1437,1440,1440,1440,1440,1440,1440,1444,1444,1444,1444,1444,1444,1444,1444,1444,1440,1440,1440,1440,1440,1440,1437,1437,1437,1437,1437,1437,1437,1437,1437,1437,1437,1437,1437,1437,1440,1440,1440,1440,1440,1440,1440,1440,1440,1440,1440,1440,1440,1440,1440,1440,1440,1440,1440,1444,1444,1444,1447,1447,1451,1451,1451,1454,1454,1454,1461,1461,1461,1461,1461,1465,1465,1465,1468,1468,1468,1468,1468,1468,1468,1468,1468,1465,1465,1465,1465,1465,1465,1465,1465,1461,1461,1461,1461,1461,1461,1465,1465,1461,1461,1461,1465,1465,1465,1465,1465,1468,1468,1468,1468,1468,1465,1465,1465,1465,1465,1465,1465,1465,1461,1461,1461,1461,1461,1461,1461,1461,1461,1461,1458,1458,1458,1458,1458,1458,1458,1458,1458,1458,1458,1458,1458,1458,1461,1461,1461,1461,1465,1465,1468,1468,1472,1475,1475,1479,1479,1479,1482,1482,1482,1482,1479,1479,1479,1472,1472,1472,1465,1465,1465,1465,1458,1454,1454,1451,1451,1451,1447,1447,1444,1444,1444,1444,1444,1444,1444,1444,1444,1447,1447,1447,1447,1447,1451,1451,1451,1451,1454,1454,1458,1458,1458,1458,1458,1458,1461,1461,1461,1461,1461,1461,1461,1461,1461,1461,1461,1458,1458,1458,1454,1454,1451,1451,1451,1451,1447,1447,1447,1447,1444,1444,1444,1440,1440,1444,1444,1444,1444,1451,1454,1454,1458,1461,1461,1465,1465,1465,1468,1468,1472,1472,1468,1468,1468,1468,1468,1465,1465,1465,1465,1465,1465,1465,1465,1465,1465,1465,1465,1465,1465,1465,1465,1465,1465,1465,1468,1468,1468,1468,1468,1468,1468,1468,1468,1468,1468,1468,2380,2380,2380,2380,2361,2361,2371,2361,2361,2371,2361
1451,1451,1451,1451,1451,1451,1451,1451,1451,1451,1447,1447,1447,1447,1447,1444,1444,1444,1444,1444,1444,1444,1444,1444,1451,1451,1451,1454,1454,1458,1461,1461,1465,1465,1465,1468,1468,1465,1465,1465,1461,1461,1458,1458,1454,1454,1454,1454,1454,1454,1454,1454,1454,1454,1458,1458,1458,1458,1461,1461,1461,1458,1458,1454,1454,1451,1447,1447,1444,1444,1444,1440,1440,1440,1437,1437,1437,1437,1440,1440,1440,1440,1440,1444,1444,1447,1447,1447,1451,1451,1451,1451,1451,1451,1451,1451,1451,1451,1451,1451,1451,1451,1451,1447,1447,1447,1447,1447,1447,1447,1447,1447,1451,1451,1451,1454,1454,1458,1458,1458,1458,1458,1458,1461,1461,1461,1465,1465,1465,1461,1461,1461,1461,1461,1461,1461,1461,1461,1458,1458,1458,1458,1458,1458,1458,1458,1458,1458,1458,1458,1458,1458,1458,1458,1458,1458,1458,1458,1458,1458,1458,1458,1454,1454,1454,1454,1454,1451,1451,1451,1451,1451,1451,1451,1451,1451,1451,1451,1451,1451,1451,1451,1451,1451,1451,1451,1451,1447,1447,1447,1447,1447,1447,1447,1447,1447,1447,1447,1447,1447,1447,1447,1447,1447,1447,1447,1447,1447,1447,1444,1444,1444,1444,1444,1444,1444,1444,1440,1440,1440,1440,1440,1437,1437,1437,1437,1437,1437,1437,1437,1437,1437,1437,1437,1437,1437,1437,1437,1437,1437,1434,1434,1434,1434,1434,1434,1434,1434,1434,1434,1434,1434,1434,1434,1434,1434,1434,1437,1437,1437,1440,1440,1440,1444,1444,1447,1447,1447,1451,1454,1454,1454,1454,1454,1454,1454,1454,1454,1454,1454,1451,1451,1451,1447,1447,1447,1444,1444,1444,1444,1444,1440,1440,1437,1437,1437,1437,1437,1437,1437,1437,1437,1437,1440,1440,1440,1440,1440,1444,1440,1440,1444,1444,1444,1444,1440,1440,1440,1440,1440,1440,1440,1437,1437,1437,1437,1437,1437,1437,1437,1437,1437,1437,1434,1434,1434,1434,1437,1437,1437,1437,1437,1437,1437,1437,1437,1437,1437,1437,1437,1437,1437,1437,1437,1437,1440,1440,1440,1444,1444,1444,1447,1447,1451,1451,1451,1454,1461,1461,1461,1461,1461,1465,1465,1465,1468,1468,1468,1468,1468,1468,1468,1468,1468,1468,1468,1468,1468,1468,1468,1468,1468,1468,1468,1465,1465,1465,1465,1465,1465,1465,1465,1465,1465,1465,1465,1465,1465,1468,1468,1468,1468,1468,1465,1465,1465,1465,1465,1465,1465,1465,1461,1461,1461,1461,1461,1461,1461,1458,1458,1458,1454,1454,1454,1454,1458,1458,1458,1458,1458,1458,1458,1458,1458,1458,1458,1461,1461,1461,1465,1465,1472,1472,1479,1479,1479,1482,1486,1486,1490,1490,1490,1490,1486,1482,1482,1479,1479,1475,1472,1472,1465,1465,1461,1458,1458,1451,1451,1451,1447,1447,1444,1444,1444,1444,1444,1444,1444,1444,1444,1447,1447,1447,1447,1447,1451,1451,1451,1451,1454,1454,1458,1458,1458,1458,1458,1458,1461,1461,1461,1461,1461,1461,1461,1461,1461,1458,1458,1458,1458,1458,1454,1454,1451,1451,1451,1451,1447,1447,1447,1447,1444,1444,1444,1440,1440,1444,1444,1444,1444,1447,1454,1454,1458,1461,1461,1465,1465,1465,1468,1468,1472,1472,1472,1472,1468,1468,1468,1465,1465,1465,1465,1465,1465,1465,1465,1465,1465,1465,1465,1465,1465,1465,1465,1465,1465,1465,1468,1468,1468,1468,1468,1468,1468,1468,1468,1468,1468,1468,2399,2399,2389,2389,2380,2380,2380,2380,2380,2380,2380
1451,1451,1451,1454,1454,1451,1451,1451,1451,1451,1451,1451,1451,1447,1447,1447,1447,1447,1447,1447,1447,1447,1451,1451,1454,1458,1458,1458,1458,1461,1465,1465,1468,1472,1472,1472,1472,1472,1472,1468,1465,1465,1461,1461,1458,1454,1454,1454,1454,1454,1454,1454,1454,1454,1458,1458,1458,1458,1458,1458,1458,1454,1454,1451,1451,1447,1444,1444,1444,1440,1440,1437,1437,1437,1434,1434,1434,1434,1437,1437,1437,1437,1440,1440,1440,1444,1447,1447,1447,1447,1451,1451,1451,1451,1451,1451,1451,1451,1451,1451,1447,1447,1447,1447,1447,1447,1447,1447,1447,1447,1447,1447,1447,1447,1447,1451,1451,1451,1458,1458,1458,1458,1458,1461,1461,1461,1465,1465,1465,1461,1461,1461,1461,1461,1461,1461,1461,1461,1458,1458,1458,1458,1458,1458,1458,1458,1458,1458,1458,1458,1458,1458,1458,1458,1458,1458,1458,1458,1454,1454,1454,1454,1454,1454,1451,1451,1451,1451,1451,1451,1451,1451,1451,1451,1451,1451,1451,1447,1447,1447,1447,1447,1447,1451,1451,1451,1451,1447,1447,1447,1447,1447,1447,1447,1447,1447,1447,1447,1447,1447,1447,1447,1447,1447,1447,1447,1447,1447,1447,1444,1444,1444,1444,1444,1444,1444,1444,1440,1440,1440,1437,1437,1437,1437,1437,1437,1437,1437,1437,1437,1437,1437,1437,1437,1437,1437,1437,1437,1437,1437,1434,1434,1434,1434,1434,1434,1434,1434,1434,1434,1434,1434,1434,1434,1434,1434,1434,1437,1437,1437,1440,1440,1440,1444,1444,1447,1447,1447,1447,1451,1451,1454,1454,1454,1454,1454,1454,1454,1451,1451,1447,1447,1447,1444,1444,1444,1444,1444,1440,1437,1437,1437,1437,1434,1434,1437,1434,1434,1434,1434,1434,1434,1434,1437,1437,1437,1440,1440,1440,1440,1440,1440,1440,1440,1440,1440,1440,1440,1440,1440,1437,1437,1437,1437,1437,1434,1434,1437,1437,1437,1437,1437,1437,1434,1434,1434,1434,1437,1437,1437,1437,1437,1437,1437,1437,1437,1437,1437,1437,1437,1437,1437,1437,1437,1437,1440,1440,1440,1444,1444,1444,1447,1447,1451,1451,1451,1454,1458,1458,1458,1458,1461,1465,1465,1465,1465,1465,1468,1468,1468,1468,1468,1468,1468,1468,1468,1468,1468,1468,1468,1468,1468,1468,1468,1465,1465,1465,1465,1465,1465,1465,1465,1465,1465,1468,1468,1468,1468,1468,1468,1468,1468,1468,1468,1468,1468,1465,1465,1465,1465,1465,1461,1461,1461,1458,1458,1458,1458,1458,1454,1454,1454,1454,1454,1454,1458,1458,1458,1458,1458,1458,1458,1458,1458,1458,1458,1461,1461,1461,1465,1465,1472,1472,1479,1486,1486,1486,1490,1490,1493,1493,1493,1493,1490,1486,1486,1482,1482,1475,1472,1472,1465,1465,1461,1458,1458,1451,1451,1451,1444,1444,1444,1444,1444,1440,1440,1440,1440,1440,1440,1444,1447,1447,1447,1447,1447,1447,1447,1451,1451,1451,1454,1454,1454,1458,1458,1458,1458,1458,1458,1458,1461,1461,1461,1458,1458,1458,1458,1458,1458,1458,1454,1454,1454,1451,1451,1451,1451,1451,1447,1447,1447,1447,1447,1444,1444,1444,1444,1444,1444,1447,1454,1454,1458,1461,1461,1465,1465,1465,1468,1468,1472,1472,1472,1472,1468,1468,1468,1468,1465,1465,1465,1465,1465,1465,1465,1465,1465,1465,1465,1465,1465,1465,1465,1465,1465,1465,1468,1468,1468,1468,1468,1468,1468,1468,1465,1465,1465,1465,2399,2399,2389,2380,2380,2380,2380,2380,2380,2380,2380
1451,1451,1451,1454,1454,1454,1454,1454,1454,1454,1454,1454,1454,1447,1447,1447,1447,1447,1447,1447,1447,1447,1451,1451,1454,1458,1458,1458,1458,1461,1465,1465,1468,1472,1472,1472,1472,1472,1472,1468,1465,1465,1461,1461,1458,1454,1454,1454,1451,1451,1451,1451,1451,1451,1454,1454,1454,1454,1454,1454,1451,1451,1451,1444,1444,1440,1440,1440,1437,1434,1434,1434,1434,1434,1434,1434,1434,1434,1434,1434,1437,1437,1440,1440,1440,1444,1447,1447,1447,1447,1451,1451,1451,1451,1451,1451,1451,1451,1451,1451,1447,1447,1447,1447,1447,1447,1447,1447,1447,1447,1447,1447,1447,1447,1447,1451,1451,1451,1451,1451,1454,1454,1454,1454,1454,1454,1454,1454,1458,1458,1454,1454,1454,1458,1458,1458,1458,1458,1454,1454,1454,1454,1454,1451,1451,1451,1451,1451,1451,1451,1451,1454,1454,1454,1454,1454,1451,1451,1451,1451,1451,1451,1451,1451,1451,1451,1451,1447,1447,1447,1447,1447,1447,1447,1447,1447,1447,1447,1447,1447,1447,1447,1447,1451,1451,1451,1451,1447,1447,1447,1447,1447,1447,1447,1447,1447,1447,1447,1447,1447,1447,1447,1447,1447,1447,1447,1447,1447,1447,1447,1447,1444,1444,1444,1444,1444,1444,1440,1440,1440,1437,1437,1437,1437,1437,1437,1437,1437,1437,1437,1437,1437,1437,1437,1437,1437,1437,1437,1437,1437,1434,1434,1434,1430,1430,1430,1430,1430,1430,1430,1430,1430,1430,1430,1430,1434,1434,1434,1437,1437,1437,1440,1440,1440,1440,1444,1447,1447,1447,1451,1451,1451,1451,1451,1451,1451,1451,1451,1447,1447,1447,1444,1444,1444,1444,1444,1444,1444,1440,1437,1437,1437,1437,1434,1434,1437,1434,1434,1434,1434,1434,1434,1434,1437,1437,1437,1440,1440,1440,1440,1440,1440,1440,1440,1440,1440,1440,1440,1440,1440,1437,1437,1437,1437,1437,1434,1434,1434,1434,1434,1434,1434,1434,1434,1434,1434,1434,1434,1434,1434,1434,1434,1434,1434,1434,1434,1434,1437,1437,1437,1434,1434,1434,1434,1434,1437,1440,1440,1440,1444,1444,1444,1444,1447,1451,1451,1454,1454,1454,1458,1458,1458,1461,1461,1461,1465,1465,1465,1465,1465,1465,1465,1468,1468,1468,1468,1468,1468,1468,1468,1468,1468,1468,1468,1468,1468,1468,1468,1468,1465,1465,1468,1468,1468,1468,1468,1468,1468,1468,1468,1468,1468,1468,1468,1468,1468,1465,1465,1465,1465,1465,1461,1461,1461,1458,1458,1458,1458,1458,1454,1454,1454,1454,1454,1454,1454,1454,1454,1454,1454,1454,1454,1454,1454,1454,1454,1454,1454,1461,1465,1465,1472,1472,1479,1486,1486,1486,1490,1490,1493,1493,1493,1493,1490,1486,1486,1482,1482,1479,1472,1472,1468,1468,1465,1458,1458,1451,1451,1451,1444,1444,1444,1440,1440,1440,1440,1440,1440,1440,1440,1444,1444,1444,1447,1447,1447,1447,1447,1451,1451,1451,1454,1454,1454,1458,1458,1458,1458,1458,1458,1458,1461,1461,1461,1458,1458,1458,1458,1458,1458,1458,1454,1454,1454,1451,1451,1451,1451,1451,1447,1447,1447,1447,1447,1444,1444,1444,1444,1444,1444,1447,1454,1454,1454,1458,1458,1461,1461,1465,1468,1468,1472,1472,1468,1468,1468,1468,1468,1468,1465,1465,1465,1465,1465,1465,1465,1465,1465,1465,1465,1465,1465,1465,1465,1465,1465,1465,1468,1468,1468,1468,1468,1468,1468,1465,1465,1465,1465,1465,2399,2399,2389,2380,2380,2380,2380,2380,2380,2380,2380
1451,1451,1451,1454,1454,1454,1454,1454,1454,1454,1454,1454,1454,1451,1451,1451,1451,1451,1451,1451,1451,1451,1454,1454,1454,1458,1458,1461,1461,1465,1468,1468,1472,1475,1475,1479,1479,1475,1475,1472,1465,1465,1461,1461,1458,1454,1454,1454,1451,1451,1451,1451,1451,1451,1454,1454,1454,1454,1454,1454,1451,1451,1451,1444,1444,1440,1440,1440,1437,1434,1434,1434,1434,1434,1434,1434,1434,1434,1434,1434,1437,1437,1437,1440,1440,1440,1444,1444,1447,1447,1447,1451,1451,1451,1451,1451,1451,1451,1447,1447,1447,1444,1444,1444,1444,1444,1444,1444,1440,1440,1440,1440,1440,1440,1444,1444,1444,1444,1444,1444,1444,1444,1447,1447,1447,1447,1447,1447,1447,1447,1447,1447,1447,1447,1447,1447,1451,1447,1444,1444,1444,1444,1440,1440,1451,1451,1451,1451,1451,1451,1451,1454,1454,1454,1454,1454,1451,1451,1451,1451,1451,1451,1451,1451,1451,1451,1451,1447,1447,1447,1447,1447,1447,1447,1447,1447,1447,1447,1447,1447,1447,1447,1447,1451,1451,1447,1447,1447,1447,1447,1447,1447,1447,1447,1447,1447,1447,1447,1447,1447,1447,1447,1447,1447,1447,1447,1447,1447,1447,1447,1447,1444,1444,1444,1444,1444,1444,1440,1440,1440,1437,1437,1437,1437,1437,1437,1437,1437,1437,1437,1437,1437,1437,1437,1437,1437,1437,1437,1437,1437,1434,1434,1434,1430,1430,1430,1430,1430,1430,1430,1430,1430,1430,1430,1430,1434,1434,1434,1437,1437,1437,1440,1440,1440,1440,1444,1447,1447,1447,1451,1451,1451,1451,1451,1451,1451,1451,1451,1447,1447,1447,1444,1444,1444,1444,1444,1440,1440,1437,1437,1437,1437,1437,1434,1434,1434,1434,1434,1434,1434,1434,1434,1434,1437,1437,1437,1437,1437,1440,1440,1440,1440,1440,1440,1440,1437,1437,1437,1437,1437,1437,1437,1437,1434,1434,1434,1434,1434,1434,1434,1430,1430,1430,1430,1430,1430,1430,1430,1430,1430,1430,1430,1430,1430,1430,1430,1430,1430,1430,1430,1430,1434,1434,1434,1434,1437,1440,1440,1440,1444,1444,1444,1444,1447,1451,1451,1454,1454,1454,1458,1458,1458,1461,1461,1461,1465,1465,1465,1465,1465,1465,1465,1468,1468,1468,1468,1468,1468,1468,1468,1468,1468,1468,1468,1468,1468,1468,1468,1468,1465,1465,1468,1468,1468,1468,1468,1468,1468,1468,1468,1468,1468,1468,1468,1468,1465,1465,1465,1461,1461,1461,1461,1461,1458,1458,1458,1454,1454,1454,1454,1454,1451,1451,1451,1451,1451,1451,1451,1451,1451,1451,1451,1451,1451,1451,1454,1454,1454,1458,1461,1461,1472,1472,1479,1482,1482,1490,1493,1493,1497,1497,1497,1497,1493,1490,1490,1486,1486,1479,1475,1475,1468,1468,1465,1458,1458,1454,1451,1451,1447,1447,1444,1440,1440,1440,1440,1440,1440,1440,1440,1444,1444,1444,1447,1447,1447,1447,1447,1451,1451,1451,1451,1451,1454,1454,1454,1458,1458,1458,1458,1458,1458,1458,1458,1458,1458,1458,1458,1458,1454,1454,1454,1451,1451,1451,1451,1451,1451,1451,1447,1447,1447,1447,1447,1444,1444,1444,1444,1444,1444,1447,1451,1451,1454,1454,1454,1458,1458,1465,1465,1465,1468,1468,1468,1468,1468,1468,1468,1468,1468,1468,1468,1468,1468,1465,1465,1465,1465,1465,1465,1465,1465,1465,1468,1468,1468,1468,1468,1468,1468,1468,1468,1468,1468,1465,1465,1465,1465,1465,2408,2408,2389,2380,2380,2380,2380,2380,2380,2380,2380
1451,1451,1451,1454,1454,1454,1454,1454,1458,1458,1458,1458,1454,1454,1454,1454,1454,1454,1454,1454,1454,1454,1458,1458,1461,1461,1461,1468,1468,1472,1475,1475,1479,1479,1479,1479,1479,1479,1479,1472,1465,1465,1461,1461,1458,1454,1454,1451,1451,1451,1451,1451,1451,1451,1451,1451,1451,1451,1451,1451,1447,1444,1444,1444,1444,1440,1437,1437,1434,1434,1434,1430,1430,1430,1430,1434,1434,1434,1434,1434,1437,1437,1437,1437,1437,1440,1440,1440,1444,1444,1444,1447,1447,1447,1447,1447,1447,1447,1447,1447,1444,1444,1444,1440,1440,1440,1444,1444,1440,1440,1440,1440,1440,1440,1444,1444,1444,1444,1444,1444,1444,1444,1447,1447,1447,1447,1447,1447,1447,1447,1447,1447,1447,1447,1447,1447,1451,1447,1444,1444,1444,1444,1440,1440,1440,1440,1444,1444,1444,1444,1444,1447,1447,1447,1451,1451,1451,1451,1451,1451,1451,1447,1447,1447,1447,1447,1447,1447,1447,1447,1447,1447,1447,1447,1447,1447,1447,1447,1447,1447,1447,1447,1447,1447,1447,1447,1447,1447,1447,1447,1447,1444,1444,1444,1444,1444,1447,1447,1447,1447,1447,1447,1447,1447,1447,1447,1447,1447,1447,1447,1447,1444,1444,1444,1444,1444,1444,1440,1440,1440,1437,1437,1437,1437,1437,1437,1437,1437,1437,1437,1437,1437,1437,1437,1437,1437,1437,1437,1437,1437,1434,1434,1434,1430,1430,1430,1430,1430,1430,1430,1430,1430,1430,1430,1430,1430,1430,1430,1434,1434,1434,1437,1437,1437,1437,1440,1440,1440,1444,1447,1447,1447,1447,1451,1451,1451,1451,1451,1447,1447,1447,1444,1444,1440,1440,1440,1440,1440,1437,1437,1437,1437,1437,1434,1434,1434,1434,1434,1434,1434,1434,1434,1434,1437,1437,1437,1437,1437,1440,1437,1437,1440,1440,1440,1440,1437,1437,1437,1437,1437,1437,1437,1437,1434,1434,1434,1434,1434,1434,1434,1430,1430,1430,1430,1430,1430,1430,1430,1430,1430,1430,1430,1430,1430,1430,1430,1430,1430,1430,1430,1430,1434,1434,1434,1434,1434,1437,1437,1440,1440,1440,1444,1444,1444,1447,1447,1451,1454,1454,1454,1454,1458,1458,1458,1458,1461,1461,1461,1461,1465,1465,1465,1465,1465,1465,1468,1468,1468,1468,1468,1468,1468,1468,1468,1468,1468,1468,1468,1468,1468,1468,1468,1468,1468,1468,1468,1468,1468,1468,1468,1468,1468,1468,1465,1465,1465,1465,1465,1461,1461,1461,1461,1461,1458,1458,1458,1454,1454,1454,1454,1454,1451,1451,1451,1451,1451,1451,1451,1451,1451,1451,1451,1451,1451,1451,1454,1454,1454,1458,1461,1461,1472,1472,1479,1482,1482,1490,1493,1493,1497,1497,1497,1497,1493,1490,1490,1486,1486,1479,1475,1475,1468,1468,1465,1458,1458,1454,1451,1451,1447,1447,1444,1440,1440,1440,1440,1440,1440,1440,1440,1440,1444,1444,1444,1447,1447,1447,1447,1447,1451,1451,1451,1451,1451,1451,1451,1454,1454,1454,1454,1454,1454,1458,1458,1454,1454,1454,1454,1454,1454,1454,1454,1451,1451,1451,1451,1451,1451,1451,1447,1447,1447,1447,1447,1444,1444,1444,1444,1444,1444,1447,1451,1451,1454,1454,1454,1458,1458,1465,1465,1465,1468,1468,1468,1468,1468,1468,1468,1468,1468,1468,1468,1468,1468,1465,1465,1465,1465,1465,1465,1465,1465,1465,1468,1468,1468,1468,1468,1468,1468,1468,1468,1468,1468,1465,1465,1465,1465,1461,1461,1461,2389,2371,2371,2371,2371,2371,2380,2380,2380
